ncols 433
nrows 32
xllcorner    502118
yllcorner    480416
cellsize     2
NODATA_value -9999
28.272 27.762 26.887 26.856 27.311 27.225 27.24 27.277 27.359 27.358 27.342 27.318 27.3 27.257 27.3 27.277 27.291 27.285 27.293 27.301 27.309 27.349 27.375 27.437 27.448 27.514 27.568 27.593 27.614 27.6 27.626 27.587 27.605 27.597 27.614 27.606 27.665 27.659 27.656 27.628 27.63 27.601 27.58 27.531 27.468 27.4 27.368 27.342 27.278 27.204 27.162 27.143 27.102 27.073 27.059 27.064 27.001 26.975 26.933 26.932 26.865 26.838 26.775 26.763 26.716 26.665 26.621 26.638 26.58 26.583 26.532 26.545 26.535 26.531 26.528 26.554 26.628 26.715 26.869 26.975 27.184 27.336 27.583 27.714 27.968 28.08 28.219 28.362 28.442 28.524 28.557 28.598 28.609 28.614 28.625 28.638 28.613 28.579 28.563 28.549 28.532 28.523 28.509 28.488 28.478 28.473 28.45 28.472 28.444 28.407 28.375 28.34 28.306 28.263 28.213 28.158 28.066 28.001 27.902 27.795 27.714 27.626 27.48 27.377 27.238 27.078 26.902 26.656 26.491 26.259 26.118 25.89 25.716 25.556 25.42 25.325 25.212 25.147 25.085 25.043 24.996 24.963 24.953 24.962 24.98 24.991 24.961 24.912 24.826 24.849 24.709 24.103 24.28 24.951 24.858 24.833 24.787 24.726 24.727 24.714 24.67 24.682 24.702 24.719 24.751 24.778 24.816 24.878 24.939 24.996 25.028 25.09 25.097 25.09 25.061 25.039 25.009 25.008 24.98 24.992 24.987 24.982 24.972 24.986 24.994 24.987 25.087 25.124 25.189 25.256 25.286 25.259 25.266 25.253 25.248 25.197 25.19 25.179 25.157 25.114 25.099 25.09 25.113 25.117 25.151 25.153 25.199 25.194 25.194 25.194 25.155 25.137 25.137 25.173 25.148 25.17 25.159 25.196 25.202 25.206 25.229 25.215 25.207 25.223 25.238 25.188 25.192 25.181 25.169 25.15 25.158 25.176 25.115 25.091 24.901 24.265 24.213 25.094 25.191 25.192 25.212 25.203 25.221 25.273 25.178 25.136 25.197 25.261 25.176 25.461 25.727 25.594 25.566 25.352 25.238 25.218 25.106 24.849 27.378 25.452 24.917 25 25.004 24.981 24.993 25.018 25.002 24.979 24.931 24.925 24.903 24.909 24.906 24.916 24.925 24.94 24.954 24.968 24.966 24.98 24.983 24.998 25.014 25.031 25.041 25.077 25.073 25.1 25.092 25.106 25.108 25.089 25.076 25.066 25.056 25.023 24.988 24.951 24.922 24.928 24.895 24.876 24.845 24.834 24.82 24.806 24.783 24.799 24.793 24.789 24.785 24.794 24.811 24.827 24.815 24.811 24.798 24.762 24.749 24.728 24.721 24.727 24.702 24.707 24.707 24.702 24.676 24.684 24.68 24.682 24.677 24.676 24.671 24.665 24.674 24.656 24.653 24.665 24.673 24.662 24.664 24.66 24.668 24.673 24.673 24.7 24.746 24.788 24.847 24.908 24.969 25.013 25.024 25.018 25.031 25.027 25.03 25.038 25.043 25.039 25.062 25.072 25.116 25.151 25.147 25.131 25.072 25.002 24.919 24.87 24.915 26.049 27.495 24.331 24.258 25.227 25.206 25.189 25.167 25.17 25.199 25.235 25.302 25.324 25.325 25.293 25.251 25.178 25.11 25.083 25.071 25.041 25.021 25.014 25.015 25.019 25.079 25.095 25.095 25.093 25.108 25.102 25.131 25.183 25.254 25.325 25.409 25.461 25.547 25.638 25.691 25.757 25.822 25.839 25.831 25.795 25.701 25.656 25.563 25.504 25.49 25.554 25.564 25.576 25.567 25.56 25.536 25.531 25.527 25.543 25.556 25.57 25.573
28.16 27.651 26.771 26.637 27.225 27.128 27.194 27.218 27.318 27.287 27.275 27.255 27.251 27.231 27.291 27.28 27.293 27.307 27.313 27.308 27.297 27.341 27.344 27.388 27.385 27.436 27.458 27.507 27.502 27.496 27.52 27.537 27.553 27.529 27.538 27.55 27.583 27.612 27.603 27.579 27.571 27.599 27.546 27.458 27.408 27.41 27.356 27.313 27.259 27.218 27.163 27.13 27.107 27.084 27.06 27.032 27.03 26.978 26.946 26.908 26.868 26.828 26.781 26.747 26.729 26.664 26.644 26.62 26.597 26.586 26.583 26.554 26.535 26.536 26.552 26.56 26.613 26.68 26.815 26.945 27.131 27.342 27.542 27.737 27.938 28.09 28.203 28.355 28.454 28.513 28.563 28.603 28.619 28.605 28.622 28.615 28.605 28.572 28.557 28.54 28.512 28.525 28.504 28.465 28.434 28.426 28.412 28.412 28.384 28.385 28.362 28.316 28.279 28.238 28.17 28.093 28.023 27.943 27.861 27.739 27.646 27.548 27.427 27.283 27.142 26.989 26.835 26.59 26.423 26.193 26.064 25.791 25.69 25.503 25.421 25.312 25.251 25.203 25.136 25.076 25.028 24.975 24.957 24.961 24.979 24.985 24.976 24.933 24.854 24.852 24.854 24.179 24.12 24.895 24.834 24.836 24.816 24.762 24.743 24.743 24.705 24.708 24.721 24.732 24.75 24.785 24.839 24.92 24.954 24.992 25.046 25.111 25.138 25.14 25.107 25.083 25.046 25.032 25.012 25.014 25.002 24.983 24.999 24.988 24.993 24.985 25.02 25.066 25.095 25.142 25.198 25.198 25.199 25.193 25.186 25.152 25.164 25.164 25.14 25.084 25.103 25.103 25.119 25.132 25.155 25.165 25.208 25.209 25.209 25.215 25.181 25.171 25.161 25.159 25.179 25.169 25.174 25.194 25.2 25.192 25.205 25.199 25.193 25.21 25.208 25.173 25.172 25.148 25.152 25.168 25.122 25.17 25.133 25.093 25.014 24.342 24.017 24.994 25.23 25.174 25.144 25.114 25.155 25.201 25.165 25.123 25.203 25.326 25.197 25.281 25.561 25.631 25.626 25.489 25.343 25.282 25.235 24.898 24.789 24.737 24.94 25.05 25.059 25.051 25.043 25.057 25.062 25.043 24.99 24.976 24.95 24.923 24.923 24.933 24.942 24.961 24.988 24.985 24.98 24.968 24.958 24.975 24.97 24.999 24.997 25.03 25.047 25.047 25.034 25.049 25.038 25.058 25.051 25.036 25.024 25.001 24.982 24.959 24.926 24.92 24.887 24.856 24.851 24.82 24.831 24.82 24.794 24.785 24.768 24.775 24.78 24.794 24.797 24.826 24.837 24.829 24.822 24.8 24.782 24.764 24.759 24.743 24.735 24.726 24.719 24.708 24.69 24.679 24.669 24.677 24.661 24.67 24.663 24.66 24.665 24.662 24.665 24.664 24.66 24.661 24.667 24.673 24.684 24.691 24.718 24.741 24.794 24.836 24.905 24.968 25.004 25.039 25.064 25.049 25.058 25.058 25.073 25.083 25.09 25.096 25.105 25.136 25.175 25.197 25.202 25.177 25.129 25.075 24.996 24.939 24.934 25.194 25.928 24.812 24.093 25.242 25.319 25.305 25.277 25.222 25.236 25.275 25.285 25.284 25.29 25.225 25.161 25.117 25.101 25.103 25.055 25.047 25.014 25.013 25.021 25.024 25.066 25.055 25.089 25.078 25.081 25.078 25.097 25.125 25.155 25.185 25.232 25.317 25.425 25.542 25.643 25.771 25.809 25.842 25.824 25.793 25.733 25.664 25.589 25.53 25.484 25.498 25.501 25.502 25.521 25.52 25.512 25.507 25.515 25.545 25.564 25.568 25.613
28.15 27.681 26.769 26.397 27.111 27.051 27.09 27.098 27.203 27.216 27.211 27.178 27.198 27.212 27.22 27.268 27.257 27.311 27.294 27.311 27.292 27.315 27.294 27.328 27.327 27.358 27.353 27.4 27.401 27.393 27.397 27.41 27.417 27.435 27.454 27.462 27.454 27.542 27.538 27.494 27.449 27.55 27.498 27.455 27.365 27.391 27.342 27.269 27.242 27.181 27.137 27.09 27.081 27.078 27.034 27.015 27.016 26.961 26.925 26.92 26.865 26.798 26.782 26.714 26.687 26.648 26.63 26.587 26.595 26.556 26.577 26.544 26.558 26.53 26.543 26.564 26.615 26.696 26.805 26.952 27.144 27.358 27.525 27.756 27.858 28.104 28.158 28.379 28.439 28.513 28.572 28.584 28.613 28.575 28.613 28.577 28.577 28.543 28.511 28.506 28.498 28.483 28.44 28.44 28.422 28.406 28.383 28.389 28.357 28.325 28.316 28.26 28.242 28.163 28.111 28.024 27.933 27.837 27.748 27.647 27.534 27.459 27.343 27.213 27.074 26.892 26.715 26.463 26.324 26.099 25.946 25.746 25.665 25.488 25.429 25.319 25.292 25.2 25.164 25.12 25.058 25.01 24.97 24.941 24.985 24.995 25.002 24.949 24.86 24.852 24.848 24.271 24.068 24.827 24.857 24.861 24.845 24.778 24.759 24.758 24.74 24.739 24.737 24.744 24.77 24.812 24.839 24.927 24.971 25.007 25.079 25.146 25.157 25.16 25.145 25.146 25.091 25.063 25.049 25.049 25.041 25.041 25.002 25.001 25.014 25.009 25.003 25.026 25.045 25.071 25.088 25.144 25.14 25.154 25.154 25.137 25.136 25.147 25.156 25.113 25.108 25.106 25.119 25.131 25.159 25.166 25.212 25.237 25.226 25.222 25.195 25.174 25.179 25.165 25.176 25.151 25.185 25.185 25.189 25.168 25.172 25.163 25.161 25.169 25.166 25.146 25.14 25.135 25.138 25.152 25.132 25.168 25.147 25.097 25.069 24.626 23.914 24.926 25.174 25.145 25.069 25.169 25.213 25.232 25.213 25.107 25.142 25.253 25.26 25.154 25.396 25.59 25.551 25.496 25.414 25.364 25.304 25.105 24.149 24.248 24.917 25.047 25.096 25.113 25.096 25.107 25.114 25.086 25.07 25.006 24.975 24.959 24.956 24.949 24.954 24.96 25.003 24.986 24.987 24.972 24.95 24.953 24.946 24.956 24.965 24.989 24.985 25.001 24.991 25.005 24.999 25.026 25.01 25.029 25.014 25.003 24.97 24.952 24.925 24.902 24.875 24.829 24.831 24.804 24.816 24.806 24.804 24.802 24.787 24.813 24.829 24.82 24.827 24.829 24.829 24.841 24.829 24.807 24.784 24.774 24.759 24.75 24.733 24.707 24.696 24.684 24.659 24.661 24.646 24.649 24.658 24.675 24.676 24.672 24.669 24.671 24.674 24.683 24.682 24.693 24.695 24.709 24.696 24.704 24.725 24.764 24.825 24.878 24.944 24.991 25.029 25.051 25.091 25.086 25.094 25.1 25.106 25.128 25.13 25.137 25.153 25.18 25.211 25.248 25.249 25.242 25.224 25.172 25.115 25.047 25.012 25.14 25.45 25.197 24.066 25.193 25.418 25.339 25.261 25.195 25.215 25.251 25.246 25.214 25.194 25.149 25.101 25.064 25.041 25.039 25.026 25.018 25.01 25.006 25.021 25.028 25.038 25.075 25.12 25.116 25.109 25.091 25.07 25.088 25.107 25.134 25.182 25.286 25.372 25.484 25.607 25.705 25.73 25.766 25.742 25.75 25.715 25.67 25.617 25.541 25.498 25.478 25.467 25.448 25.479 25.483 25.475 25.496 25.524 25.528 25.552 25.583 25.641
28.117 27.757 26.662 26.207 26.798 26.968 27.02 27.053 27.093 27.118 27.106 27.123 27.123 27.165 27.158 27.239 27.208 27.25 27.256 27.281 27.268 27.264 27.265 27.262 27.267 27.263 27.284 27.28 27.262 27.281 27.288 27.301 27.305 27.302 27.317 27.383 27.391 27.424 27.474 27.428 27.4 27.441 27.396 27.373 27.328 27.302 27.257 27.236 27.19 27.143 27.091 27.062 27.039 27.021 26.995 26.976 26.979 26.918 26.904 26.853 26.83 26.765 26.727 26.64 26.656 26.576 26.577 26.527 26.57 26.536 26.565 26.522 26.538 26.536 26.559 26.597 26.618 26.723 26.798 26.988 27.102 27.377 27.477 27.776 27.846 28.096 28.179 28.355 28.435 28.484 28.546 28.562 28.579 28.571 28.587 28.562 28.55 28.531 28.506 28.493 28.472 28.44 28.428 28.411 28.386 28.378 28.362 28.358 28.321 28.307 28.255 28.193 28.15 28.073 28.021 27.939 27.866 27.755 27.648 27.582 27.472 27.354 27.225 27.103 26.928 26.801 26.622 26.439 26.238 26.055 25.893 25.752 25.614 25.475 25.38 25.322 25.281 25.214 25.202 25.15 25.111 25.04 25.014 24.986 25.018 25.011 25.011 24.933 24.874 24.835 24.842 24.36 23.983 24.48 24.846 24.888 24.889 24.833 24.786 24.801 24.776 24.754 24.75 24.748 24.762 24.8 24.848 24.913 24.978 25.005 25.095 25.148 25.187 25.191 25.208 25.166 25.142 25.092 25.085 25.075 25.046 25.053 25.076 25.043 25.035 25.003 25.018 25.008 25.032 25.027 25.031 25.08 25.092 25.127 25.136 25.117 25.123 25.138 25.13 25.113 25.106 25.108 25.115 25.131 25.138 25.167 25.198 25.246 25.229 25.214 25.205 25.165 25.18 25.171 25.195 25.148 25.163 25.146 25.143 25.128 25.13 25.127 25.113 25.153 25.132 25.125 25.112 25.133 25.106 25.127 25.122 25.161 25.172 25.109 25.075 24.667 23.964 24.704 25.245 25.312 25.426 25.576 25.465 25.216 25.109 25.092 25.16 25.365 25.397 25.126 25.24 25.566 25.669 25.469 25.45 25.46 25.439 25.336 24.681 24.222 24.907 25.08 25.142 25.145 25.133 25.159 25.166 25.162 25.125 25.063 25.018 24.971 24.965 24.97 24.998 24.975 24.984 24.987 24.978 24.963 24.942 24.918 24.925 24.929 24.933 24.95 24.95 24.96 24.959 24.965 24.954 24.972 24.974 25.013 25.009 24.999 24.975 24.948 24.916 24.899 24.853 24.828 24.82 24.81 24.816 24.814 24.823 24.824 24.809 24.811 24.819 24.831 24.839 24.837 24.836 24.83 24.814 24.797 24.786 24.763 24.744 24.72 24.695 24.686 24.681 24.673 24.669 24.676 24.67 24.67 24.683 24.684 24.674 24.698 24.7 24.692 24.683 24.694 24.695 24.721 24.693 24.689 24.708 24.717 24.746 24.79 24.841 24.918 24.972 25.005 25.031 25.046 25.091 25.113 25.119 25.127 25.131 25.148 25.158 25.172 25.21 25.254 25.283 25.306 25.333 25.344 25.337 25.29 25.246 25.181 25.159 25.177 25.509 25.462 24.504 24.988 25.471 25.495 25.356 25.257 25.23 25.227 25.236 25.223 25.195 25.153 25.13 25.076 25.061 25.036 25.037 25.021 25.037 25.048 25.031 25.038 25.079 25.123 25.152 25.138 25.142 25.137 25.098 25.098 25.126 25.153 25.209 25.276 25.341 25.439 25.543 25.619 25.637 25.663 25.683 25.687 25.676 25.665 25.616 25.536 25.492 25.485 25.46 25.434 25.441 25.426 25.43 25.466 25.482 25.496 25.522 25.584 25.639
28.282 27.763 26.763 26.162 26.592 26.921 26.922 26.991 27.001 27.069 27.04 27.038 27.007 27.08 27.101 27.147 27.138 27.198 27.223 27.245 27.226 27.238 27.212 27.201 27.196 27.167 27.173 27.164 27.178 27.156 27.157 27.17 27.188 27.208 27.179 27.26 27.304 27.361 27.327 27.31 27.295 27.299 27.29 27.268 27.236 27.208 27.17 27.133 27.108 27.09 27.064 27.024 26.968 26.946 26.933 26.911 26.88 26.853 26.835 26.784 26.77 26.714 26.668 26.587 26.57 26.535 26.508 26.477 26.502 26.49 26.515 26.509 26.52 26.517 26.551 26.588 26.632 26.718 26.81 26.995 27.118 27.372 27.486 27.752 27.873 28.054 28.193 28.322 28.408 28.459 28.532 28.537 28.551 28.548 28.547 28.54 28.521 28.51 28.49 28.465 28.471 28.44 28.396 28.382 28.365 28.346 28.308 28.282 28.265 28.23 28.205 28.151 28.08 28.008 27.916 27.832 27.765 27.629 27.523 27.445 27.337 27.218 27.12 26.976 26.821 26.685 26.48 26.351 26.129 25.996 25.805 25.701 25.545 25.449 25.378 25.327 25.274 25.261 25.227 25.212 25.174 25.107 25.096 25.065 25.057 25.054 25.018 24.942 24.855 24.845 24.857 24.605 23.998 24.447 24.878 24.875 24.915 24.864 24.839 24.828 24.804 24.786 24.785 24.791 24.792 24.829 24.88 24.921 25.045 25.067 25.114 25.151 25.199 25.224 25.244 25.213 25.179 25.125 25.114 25.104 25.085 25.058 25.064 25.054 25.027 25.029 25.016 25.025 25.042 25.05 25.048 25.059 25.041 25.09 25.088 25.092 25.099 25.118 25.134 25.106 25.094 25.109 25.104 25.128 25.136 25.153 25.175 25.249 25.23 25.214 25.209 25.158 25.167 25.152 25.149 25.139 25.126 25.102 25.102 25.104 25.092 25.069 25.073 25.098 25.12 25.102 25.091 25.105 25.081 25.102 25.102 25.138 25.173 25.106 25.055 24.951 24.321 24.216 25.469 25.372 26.056 25.865 25.305 25.15 25.044 25.05 25.109 25.276 25.353 25.225 25.252 25.404 25.47 25.447 25.561 25.643 25.608 25.456 24.873 24.381 24.878 25.066 25.203 25.205 25.206 25.209 25.225 25.21 25.159 25.08 25.033 24.987 24.974 24.962 24.97 24.969 24.969 24.963 24.95 24.94 24.923 24.901 24.904 24.912 24.905 24.913 24.929 24.924 24.93 24.923 24.912 24.934 24.962 24.976 24.973 24.951 24.953 24.926 24.909 24.88 24.841 24.831 24.813 24.804 24.82 24.832 24.828 24.813 24.833 24.813 24.823 24.826 24.828 24.825 24.82 24.808 24.789 24.784 24.776 24.754 24.737 24.721 24.691 24.697 24.688 24.674 24.676 24.691 24.678 24.683 24.688 24.709 24.69 24.715 24.716 24.694 24.71 24.725 24.707 24.715 24.68 24.681 24.698 24.728 24.775 24.829 24.861 24.915 24.957 25.001 25.054 25.064 25.105 25.145 25.164 25.172 25.184 25.192 25.229 25.262 25.311 25.347 25.37 25.424 25.438 25.452 25.467 25.404 25.394 25.34 25.323 25.29 25.543 25.453 24.518 24.281 25.461 25.642 25.511 25.392 25.342 25.28 25.268 25.238 25.198 25.171 25.163 25.126 25.079 25.063 25.06 25.081 25.125 25.089 25.067 25.073 25.104 25.118 25.124 25.11 25.135 25.164 25.151 25.157 25.145 25.169 25.226 25.27 25.342 25.435 25.499 25.564 25.588 25.618 25.655 25.678 25.672 25.664 25.614 25.555 25.503 25.475 25.443 25.396 25.412 25.402 25.418 25.446 25.462 25.488 25.524 25.601 25.643
28.358 27.684 27.01 26.173 26.6 26.873 26.844 26.926 26.932 27.01 26.967 26.945 26.934 26.984 27.022 27.067 27.068 27.088 27.137 27.152 27.184 27.152 27.159 27.117 27.12 27.103 27.099 27.08 27.085 27.037 27.061 27.054 27.06 27.054 27.04 27.108 27.168 27.184 27.193 27.168 27.181 27.163 27.17 27.157 27.139 27.095 27.109 27.074 27.032 27.005 26.973 26.936 26.887 26.867 26.86 26.838 26.816 26.803 26.76 26.74 26.685 26.627 26.578 26.517 26.474 26.438 26.416 26.411 26.428 26.451 26.438 26.458 26.466 26.473 26.515 26.559 26.601 26.736 26.828 27.018 27.135 27.297 27.528 27.719 27.888 28.027 28.22 28.307 28.424 28.457 28.505 28.526 28.52 28.536 28.526 28.535 28.519 28.507 28.479 28.45 28.435 28.396 28.392 28.344 28.313 28.296 28.262 28.219 28.202 28.158 28.116 28.047 27.957 27.895 27.806 27.727 27.631 27.532 27.42 27.313 27.215 27.115 26.938 26.816 26.676 26.547 26.395 26.262 26.021 25.889 25.739 25.655 25.519 25.451 25.36 25.327 25.304 25.3 25.28 25.297 25.258 25.203 25.16 25.129 25.097 25.084 25.026 24.976 24.854 24.825 24.85 24.772 24.014 24.202 24.885 24.898 24.955 24.927 24.875 24.86 24.855 24.838 24.838 24.841 24.848 24.872 24.927 24.966 25.052 25.084 25.138 25.175 25.235 25.258 25.276 25.265 25.221 25.182 25.16 25.119 25.108 25.071 25.068 25.095 25.05 25.037 25.033 25.044 25.058 25.057 25.06 25.058 25.043 25.064 25.054 25.067 25.082 25.114 25.103 25.075 25.091 25.105 25.093 25.132 25.125 25.144 25.174 25.213 25.232 25.206 25.171 25.146 25.134 25.119 25.119 25.1 25.079 25.065 25.063 25.052 25.059 25.041 25.034 25.089 25.093 25.085 25.068 25.087 25.059 25.074 25.102 25.089 25.17 25.122 25.049 25.003 24.657 24.284 25.713 25.321 25.338 25.209 25.082 25.073 25.089 25.062 25.082 25.267 25.428 25.48 25.326 25.189 25.246 25.504 25.701 25.628 25.65 25.553 25.171 24.978 24.978 25.075 25.242 25.25 25.251 25.231 25.241 25.214 25.175 25.101 25.028 24.98 24.968 24.949 24.956 24.963 24.97 24.962 24.93 24.919 24.885 24.882 24.896 24.905 24.89 24.893 24.894 24.889 24.895 24.881 24.882 24.909 24.949 24.955 24.954 24.938 24.933 24.898 24.87 24.852 24.828 24.82 24.802 24.816 24.813 24.841 24.833 24.823 24.814 24.788 24.792 24.778 24.791 24.777 24.785 24.779 24.771 24.775 24.787 24.771 24.757 24.736 24.704 24.701 24.68 24.689 24.682 24.691 24.678 24.68 24.695 24.703 24.691 24.705 24.709 24.702 24.719 24.701 24.691 24.688 24.681 24.718 24.726 24.762 24.802 24.857 24.88 24.924 24.972 25.016 25.048 25.078 25.122 25.164 25.227 25.262 25.28 25.292 25.311 25.375 25.427 25.465 25.505 25.543 25.565 25.555 25.581 25.542 25.532 25.474 25.445 25.428 25.584 25.688 25.648 25.018 25.326 25.729 25.709 25.519 25.407 25.351 25.324 25.267 25.24 25.229 25.234 25.193 25.116 25.105 25.123 25.11 25.123 25.113 25.086 25.082 25.101 25.125 25.114 25.093 25.096 25.159 25.17 25.166 25.146 25.182 25.235 25.286 25.363 25.444 25.502 25.55 25.574 25.586 25.607 25.659 25.688 25.667 25.609 25.556 25.515 25.425 25.394 25.356 25.365 25.384 25.413 25.44 25.469 25.492 25.526 25.576 25.624
28.497 27.717 27.34 26.434 26.619 26.832 26.835 26.888 26.902 26.939 26.915 26.877 26.845 26.866 26.929 26.926 26.969 26.984 27.049 27.048 27.107 27.102 27.121 27.072 27.071 27.052 27.043 27.004 26.978 26.939 26.928 26.929 26.884 26.887 26.933 26.973 27.019 26.988 27.005 27.002 27.023 27.013 27.021 27.007 27.01 26.995 26.984 26.952 26.935 26.917 26.879 26.845 26.789 26.789 26.779 26.782 26.735 26.76 26.706 26.682 26.612 26.583 26.458 26.4 26.328 26.32 26.3 26.311 26.314 26.361 26.348 26.4 26.419 26.457 26.492 26.533 26.612 26.746 26.877 27.017 27.185 27.324 27.549 27.699 27.968 28.019 28.21 28.295 28.396 28.453 28.481 28.519 28.521 28.544 28.522 28.518 28.494 28.465 28.449 28.42 28.392 28.371 28.345 28.319 28.29 28.24 28.182 28.137 28.098 28.068 28.009 27.963 27.852 27.784 27.664 27.602 27.511 27.388 27.284 27.17 27.047 26.943 26.792 26.692 26.581 26.406 26.287 26.127 25.94 25.797 25.675 25.575 25.488 25.429 25.361 25.341 25.304 25.314 25.321 25.348 25.318 25.307 25.271 25.198 25.157 25.127 25.08 24.981 24.875 24.825 24.84 24.829 24.186 23.966 24.818 24.91 24.962 24.966 24.916 24.92 24.915 24.9 24.883 24.898 24.903 24.923 24.965 25.01 25.069 25.114 25.162 25.2 25.255 25.288 25.309 25.294 25.251 25.209 25.192 25.178 25.134 25.066 25.055 25.08 25.055 25.036 25.046 25.045 25.057 25.076 25.06 25.059 25.054 25.067 25.058 25.071 25.068 25.099 25.1 25.097 25.073 25.074 25.064 25.08 25.104 25.102 25.156 25.171 25.193 25.189 25.151 25.129 25.096 25.1 25.084 25.038 25.012 25.02 25.021 25.024 25.027 25.028 25.006 25.014 25.08 25.065 25.071 25.067 25.041 25.052 25.073 25.075 25.132 25.148 25.052 25.021 24.77 24.363 25.071 25.113 25.122 25.049 25.04 25.092 25.114 25.126 25.209 25.312 25.412 25.449 25.515 25.329 25.148 25.537 25.622 25.678 25.675 25.575 25.259 24.448 24.384 24.974 25.256 25.31 25.296 25.259 25.244 25.226 25.185 25.114 25.017 24.991 24.96 24.947 24.953 24.959 24.96 24.952 24.911 24.891 24.885 24.893 24.899 24.892 24.89 24.878 24.875 24.86 24.855 24.858 24.852 24.871 24.897 24.903 24.921 24.916 24.897 24.867 24.854 24.859 24.839 24.821 24.821 24.84 24.816 24.81 24.797 24.793 24.783 24.774 24.754 24.756 24.753 24.748 24.759 24.774 24.789 24.801 24.798 24.811 24.781 24.749 24.726 24.698 24.681 24.694 24.69 24.697 24.684 24.699 24.705 24.736 24.729 24.734 24.721 24.709 24.687 24.687 24.69 24.705 24.712 24.736 24.762 24.809 24.833 24.884 24.913 24.947 24.976 25.017 25.072 25.112 25.175 25.245 25.3 25.349 25.369 25.403 25.45 25.511 25.549 25.568 25.628 25.676 25.696 25.704 25.711 25.682 25.662 25.568 25.578 25.568 25.654 25.84 26.262 24.793 25.213 25.762 25.816 25.69 25.483 25.447 25.391 25.33 25.316 25.315 25.311 25.256 25.179 25.127 25.128 25.112 25.116 25.11 25.096 25.078 25.109 25.138 25.125 25.109 25.092 25.151 25.191 25.182 25.173 25.233 25.282 25.326 25.377 25.44 25.486 25.528 25.573 25.601 25.63 25.648 25.676 25.636 25.592 25.546 25.465 25.395 25.336 25.319 25.333 25.378 25.402 25.469 25.483 25.5 25.543 25.573 25.609
28.537 27.864 27.339 26.644 26.83 26.855 26.813 26.846 26.874 26.881 26.884 26.817 26.731 26.744 26.817 26.81 26.872 26.841 26.938 26.981 27.039 27.028 27.02 27.019 27.007 26.991 26.947 26.912 26.883 26.853 26.817 26.82 26.8 26.789 26.777 26.833 26.819 26.818 26.836 26.826 26.808 26.832 26.845 26.833 26.848 26.859 26.857 26.838 26.792 26.827 26.777 26.771 26.722 26.727 26.69 26.667 26.658 26.65 26.606 26.583 26.5 26.437 26.345 26.305 26.244 26.208 26.176 26.208 26.187 26.281 26.275 26.371 26.365 26.445 26.497 26.586 26.695 26.77 26.945 27.032 27.276 27.364 27.642 27.739 27.991 28.071 28.217 28.313 28.395 28.452 28.476 28.52 28.516 28.541 28.505 28.502 28.479 28.446 28.439 28.395 28.357 28.34 28.309 28.236 28.218 28.15 28.098 28.05 28.011 27.958 27.862 27.802 27.703 27.667 27.534 27.479 27.389 27.266 27.119 27.017 26.893 26.751 26.701 26.543 26.445 26.286 26.187 26.019 25.879 25.712 25.617 25.492 25.429 25.388 25.326 25.303 25.285 25.311 25.336 25.419 25.373 25.369 25.326 25.244 25.185 25.152 25.098 25.005 24.928 24.841 24.826 24.86 24.348 23.934 24.605 24.95 24.969 24.979 24.974 24.958 24.957 24.963 24.938 24.941 24.955 24.977 25.036 25.081 25.116 25.151 25.188 25.255 25.286 25.308 25.322 25.339 25.294 25.255 25.237 25.207 25.158 25.111 25.093 25.064 25.071 25.065 25.066 25.069 25.069 25.071 25.063 25.07 25.074 25.079 25.053 25.07 25.059 25.09 25.095 25.088 25.052 25.045 25.054 25.038 25.066 25.076 25.128 25.133 25.151 25.14 25.116 25.095 25.048 25.028 25.039 25.025 24.968 24.981 24.983 24.989 25.016 25.022 25.001 25 25.049 25.037 25.054 25.045 25.022 25.035 25.067 25.089 25.118 25.133 25.066 25.025 24.793 24.199 24.451 25.044 25.099 25.104 25.081 25.082 25.138 25.164 25.277 25.398 25.469 25.473 25.389 25.255 25.11 25.49 25.922 25.944 25.687 25.59 25.4 24.616 23.903 24.936 25.223 25.332 25.317 25.287 25.247 25.239 25.183 25.139 25.061 25.005 24.961 24.953 24.96 24.96 24.937 24.924 24.907 24.892 24.887 24.883 24.869 24.868 24.86 24.847 24.848 24.818 24.817 24.818 24.819 24.832 24.843 24.844 24.871 24.866 24.872 24.852 24.85 24.864 24.853 24.82 24.81 24.806 24.794 24.786 24.767 24.763 24.76 24.754 24.747 24.748 24.753 24.755 24.779 24.792 24.811 24.837 24.809 24.804 24.782 24.768 24.765 24.747 24.71 24.703 24.705 24.705 24.696 24.708 24.708 24.705 24.709 24.703 24.7 24.717 24.706 24.704 24.698 24.716 24.737 24.762 24.806 24.854 24.902 24.916 24.948 24.976 25 25.048 25.112 25.175 25.258 25.358 25.423 25.45 25.496 25.545 25.617 25.654 25.711 25.762 25.806 25.84 25.837 25.867 25.834 25.791 25.78 25.725 25.686 25.679 25.727 25.977 27 25.807 24.953 25.551 25.889 25.867 25.624 25.554 25.469 25.422 25.408 25.403 25.337 25.272 25.193 25.123 25.133 25.107 25.113 25.108 25.101 25.072 25.075 25.114 25.13 25.11 25.094 25.122 25.171 25.212 25.247 25.286 25.351 25.378 25.428 25.462 25.541 25.558 25.581 25.619 25.634 25.63 25.637 25.581 25.506 25.482 25.425 25.361 25.317 25.315 25.358 25.419 25.433 25.459 25.496 25.511 25.538 25.552 25.585
28.609 28.165 27.28 26.686 26.881 26.882 26.799 26.814 26.878 26.847 26.83 26.77 26.696 26.675 26.714 26.687 26.757 26.731 26.829 26.866 26.915 26.943 26.927 26.948 26.938 26.942 26.904 26.876 26.844 26.816 26.755 26.737 26.695 26.67 26.616 26.592 26.603 26.628 26.648 26.624 26.667 26.663 26.667 26.687 26.718 26.723 26.728 26.746 26.712 26.697 26.658 26.633 26.633 26.612 26.595 26.57 26.566 26.545 26.508 26.445 26.398 26.341 26.248 26.166 26.098 26.088 26.063 26.093 26.105 26.18 26.216 26.3 26.377 26.474 26.562 26.676 26.78 26.862 27.031 27.15 27.35 27.456 27.692 27.81 28.019 28.124 28.244 28.342 28.412 28.476 28.479 28.506 28.509 28.499 28.49 28.471 28.46 28.425 28.403 28.371 28.327 28.274 28.227 28.177 28.124 28.058 27.99 27.933 27.874 27.843 27.783 27.732 27.636 27.534 27.396 27.297 27.225 27.108 26.998 26.866 26.746 26.564 26.529 26.358 26.265 26.144 26.046 25.876 25.788 25.63 25.555 25.442 25.399 25.361 25.295 25.278 25.265 25.312 25.33 25.385 25.433 25.402 25.318 25.245 25.202 25.146 25.101 24.986 24.934 24.834 24.822 24.886 24.614 23.978 24.439 24.991 24.987 25.028 25.029 25.044 25.039 25.011 24.996 24.988 24.985 25.019 25.065 25.121 25.172 25.201 25.212 25.271 25.295 25.335 25.33 25.339 25.324 25.289 25.265 25.225 25.19 25.149 25.123 25.107 25.088 25.089 25.091 25.074 25.087 25.065 25.067 25.085 25.079 25.069 25.053 25.052 25.048 25.091 25.102 25.104 25.047 25.043 25.052 25.032 25.051 25.046 25.086 25.098 25.118 25.118 25.087 25.051 25.04 24.986 24.989 25.001 24.954 24.943 24.938 24.971 24.983 25 24.988 24.987 25.007 25.024 25.029 25.031 25.03 25.034 25.049 25.064 25.088 25.129 25.076 25.024 24.811 24.243 24.467 25.049 25.179 25.24 25.164 25.139 25.173 25.211 25.253 25.407 25.449 25.384 25.272 25.234 25.066 25.231 25.682 25.76 25.784 25.698 25.603 24.943 24.015 24.716 25.202 25.344 25.327 25.289 25.272 25.278 25.207 25.146 25.082 25.026 24.98 24.958 24.959 24.948 24.935 24.915 24.909 24.885 24.879 24.868 24.855 24.842 24.828 24.824 24.821 24.796 24.805 24.805 24.822 24.83 24.833 24.837 24.844 24.854 24.862 24.843 24.817 24.818 24.81 24.781 24.767 24.772 24.769 24.78 24.766 24.764 24.758 24.754 24.759 24.749 24.766 24.777 24.789 24.788 24.814 24.842 24.83 24.816 24.805 24.789 24.792 24.78 24.749 24.749 24.725 24.71 24.699 24.705 24.701 24.695 24.696 24.705 24.702 24.72 24.714 24.721 24.725 24.732 24.767 24.805 24.859 24.915 24.949 24.99 25.004 25.041 25.081 25.136 25.185 25.282 25.35 25.432 25.492 25.557 25.602 25.664 25.717 25.806 25.876 25.943 25.986 26.014 26 26.002 25.966 25.946 25.91 25.858 25.786 25.815 25.889 26.486 27.033 25.872 24.89 25.258 25.853 25.909 25.702 25.64 25.569 25.518 25.466 25.429 25.366 25.277 25.216 25.157 25.161 25.135 25.13 25.107 25.084 25.076 25.077 25.104 25.128 25.112 25.116 25.157 25.192 25.23 25.261 25.311 25.388 25.418 25.456 25.514 25.61 25.618 25.614 25.626 25.605 25.549 25.517 25.49 25.44 25.401 25.371 25.333 25.325 25.369 25.42 25.47 25.466 25.493 25.509 25.518 25.539 25.535 25.569
28.643 28.887 27.833 26.712 26.909 26.911 26.809 26.788 26.836 26.833 26.807 26.751 26.644 26.593 26.613 26.607 26.621 26.629 26.674 26.766 26.769 26.854 26.863 26.923 26.898 26.892 26.865 26.875 26.813 26.765 26.726 26.673 26.591 26.533 26.466 26.449 26.457 26.478 26.448 26.443 26.434 26.483 26.49 26.544 26.543 26.568 26.591 26.576 26.603 26.572 26.555 26.511 26.541 26.49 26.476 26.448 26.458 26.434 26.414 26.363 26.306 26.242 26.17 26.112 26.07 25.999 26.002 26.039 26.078 26.136 26.209 26.317 26.425 26.501 26.613 26.729 26.85 26.983 27.1 27.225 27.424 27.563 27.704 27.87 28.046 28.19 28.251 28.349 28.411 28.478 28.476 28.486 28.485 28.484 28.501 28.446 28.414 28.377 28.334 28.314 28.273 28.244 28.179 28.124 28.046 27.995 27.914 27.87 27.778 27.724 27.64 27.513 27.447 27.343 27.241 27.095 26.999 26.911 26.78 26.638 26.53 26.408 26.298 26.214 26.13 26.028 25.92 25.812 25.757 25.605 25.512 25.417 25.358 25.332 25.286 25.265 25.258 25.281 25.342 25.374 25.43 25.391 25.34 25.222 25.18 25.13 25.076 24.998 24.96 24.854 24.802 24.88 24.793 24.134 24.384 24.996 25.01 25.083 25.1 25.106 25.096 25.065 25.053 25.053 25.063 25.08 25.104 25.179 25.221 25.222 25.25 25.293 25.33 25.348 25.35 25.344 25.349 25.302 25.288 25.25 25.228 25.182 25.155 25.136 25.125 25.109 25.117 25.097 25.111 25.083 25.081 25.071 25.075 25.049 25.035 25.045 25.055 25.09 25.121 25.106 25.084 25.072 25.067 25.042 25.051 25.074 25.093 25.106 25.113 25.12 25.094 25.06 25.044 24.978 24.963 24.975 24.956 24.936 24.923 24.944 24.963 24.971 24.957 24.964 24.968 25.003 24.987 25.004 25.006 25.003 25.028 25.02 25.04 25.09 25.074 25.028 24.947 24.634 24.093 25.013 25.09 25.193 25.197 25.168 25.179 25.227 25.321 25.508 25.46 25.387 25.334 25.346 25.088 25.088 25.532 25.582 25.753 25.827 26.094 25.323 24.428 24.58 25.087 25.371 25.371 25.335 25.29 25.278 25.221 25.14 25.085 25.054 24.993 24.96 24.955 24.945 24.947 24.931 24.913 24.897 24.877 24.864 24.849 24.83 24.828 24.828 24.824 24.828 24.829 24.818 24.821 24.82 24.837 24.836 24.825 24.827 24.822 24.787 24.786 24.786 24.774 24.75 24.752 24.75 24.772 24.764 24.766 24.764 24.767 24.762 24.766 24.759 24.756 24.787 24.793 24.814 24.833 24.844 24.839 24.819 24.811 24.807 24.805 24.795 24.764 24.749 24.733 24.733 24.723 24.762 24.751 24.726 24.723 24.736 24.734 24.755 24.745 24.751 24.768 24.78 24.833 24.873 24.919 24.955 24.979 25.021 25.055 25.094 25.15 25.195 25.274 25.335 25.417 25.49 25.553 25.629 25.7 25.776 25.85 25.948 26.038 26.13 26.173 26.169 26.172 26.156 26.14 26.096 26.043 26.002 25.958 25.961 25.965 26.289 26.447 26.664 25.905 24.668 25.764 26.008 25.815 25.744 25.664 25.57 25.52 25.424 25.348 25.289 25.244 25.169 25.162 25.169 25.148 25.105 25.119 25.119 25.095 25.094 25.122 25.161 25.197 25.18 25.207 25.251 25.281 25.331 25.366 25.405 25.49 25.555 25.584 25.618 25.592 25.562 25.515 25.458 25.446 25.417 25.41 25.38 25.366 25.37 25.414 25.444 25.497 25.529 25.521 25.515 25.542 25.56 25.562 25.555 25.575
28.827 29.122 28.646 27.408 26.829 26.896 26.804 26.824 26.842 26.827 26.789 26.739 26.639 26.55 26.527 26.52 26.502 26.578 26.556 26.666 26.689 26.775 26.763 26.813 26.822 26.836 26.827 26.803 26.773 26.727 26.665 26.603 26.548 26.461 26.405 26.346 26.319 26.289 26.272 26.293 26.267 26.289 26.315 26.347 26.399 26.395 26.411 26.459 26.444 26.412 26.446 26.413 26.46 26.411 26.381 26.353 26.395 26.368 26.345 26.287 26.254 26.186 26.14 26.07 26.012 25.977 25.975 25.995 26.086 26.13 26.25 26.354 26.47 26.582 26.702 26.846 26.947 27.115 27.212 27.401 27.51 27.693 27.778 27.997 28.07 28.246 28.307 28.385 28.443 28.451 28.465 28.456 28.461 28.431 28.429 28.411 28.391 28.351 28.295 28.264 28.221 28.155 28.098 28.058 27.954 27.867 27.829 27.727 27.632 27.532 27.466 27.365 27.281 27.17 27.055 26.93 26.815 26.728 26.598 26.483 26.375 26.283 26.19 26.113 26.023 25.914 25.846 25.764 25.651 25.548 25.459 25.394 25.353 25.321 25.268 25.234 25.251 25.26 25.283 25.307 25.408 25.343 25.247 25.163 25.127 25.087 25.057 25.01 24.976 24.885 24.815 24.897 24.9 24.094 24.257 25.007 25.046 25.144 25.172 25.179 25.157 25.135 25.118 25.108 25.099 25.117 25.13 25.219 25.251 25.254 25.286 25.314 25.33 25.342 25.363 25.358 25.348 25.325 25.311 25.292 25.283 25.246 25.198 25.187 25.16 25.134 25.143 25.127 25.126 25.102 25.116 25.089 25.084 25.073 25.057 25.045 25.071 25.071 25.102 25.103 25.089 25.071 25.076 25.065 25.065 25.087 25.088 25.132 25.144 25.127 25.088 25.066 25.056 25.008 24.969 24.965 24.969 24.961 24.945 24.951 24.957 24.966 24.972 24.972 24.957 24.976 24.987 24.984 24.988 24.996 25.012 25.01 25.006 25.041 25.051 25.006 24.977 24.565 23.959 24.651 24.978 25.186 25.211 25.228 25.187 25.258 25.335 25.568 25.515 25.449 25.45 25.483 25.151 25.069 25.391 25.507 25.677 25.735 25.748 25.467 24.677 24.449 24.987 25.382 25.411 25.372 25.322 25.311 25.243 25.135 25.076 25.024 25.012 24.98 24.969 24.96 24.937 24.951 24.933 24.912 24.886 24.88 24.876 24.875 24.874 24.864 24.849 24.848 24.826 24.843 24.814 24.823 24.818 24.791 24.785 24.776 24.778 24.765 24.766 24.77 24.761 24.751 24.75 24.752 24.765 24.752 24.776 24.759 24.766 24.747 24.736 24.744 24.765 24.783 24.796 24.818 24.85 24.843 24.832 24.814 24.795 24.781 24.797 24.802 24.78 24.771 24.779 24.759 24.77 24.763 24.767 24.759 24.777 24.796 24.78 24.798 24.792 24.807 24.812 24.82 24.88 24.941 24.986 25.019 25.058 25.076 25.125 25.147 25.204 25.246 25.318 25.402 25.463 25.55 25.664 25.727 25.812 25.918 26.01 26.107 26.206 26.275 26.298 26.316 26.325 26.31 26.298 26.242 26.203 26.137 26.06 26.085 26.044 26.203 26.283 26.432 25.279 24.462 25.662 26.075 25.961 25.845 25.73 25.649 25.553 25.456 25.323 25.273 25.239 25.18 25.192 25.188 25.148 25.154 25.152 25.15 25.171 25.165 25.204 25.238 25.251 25.228 25.237 25.256 25.299 25.334 25.379 25.422 25.47 25.509 25.545 25.543 25.504 25.483 25.453 25.388 25.375 25.358 25.385 25.375 25.42 25.468 25.487 25.541 25.656 25.649 25.604 25.568 25.598 25.604 25.599 25.569 25.598
28.883 28.746 28.18 26.448 26.642 26.913 26.802 26.815 26.844 26.841 26.798 26.738 26.646 26.518 26.487 26.465 26.46 26.498 26.496 26.565 26.588 26.66 26.687 26.696 26.726 26.733 26.755 26.736 26.73 26.684 26.677 26.598 26.526 26.438 26.378 26.263 26.237 26.145 26.149 26.141 26.133 26.126 26.129 26.162 26.203 26.246 26.287 26.293 26.326 26.311 26.314 26.305 26.336 26.317 26.302 26.306 26.321 26.309 26.293 26.257 26.239 26.15 26.097 26.026 25.988 25.968 25.973 25.98 26.105 26.146 26.298 26.406 26.579 26.709 26.824 26.979 27.105 27.252 27.343 27.522 27.603 27.816 27.871 28.079 28.12 28.288 28.33 28.393 28.427 28.444 28.477 28.437 28.448 28.422 28.412 28.368 28.328 28.297 28.231 28.203 28.134 28.048 27.983 27.915 27.846 27.744 27.661 27.536 27.43 27.365 27.312 27.172 27.115 27.012 26.856 26.766 26.653 26.537 26.41 26.358 26.236 26.152 26.041 25.977 25.883 25.821 25.723 25.682 25.602 25.521 25.417 25.355 25.318 25.301 25.266 25.234 25.214 25.223 25.234 25.25 25.314 25.313 25.178 25.132 25.091 25.059 25.048 25.013 24.986 24.928 24.853 24.902 24.977 24.463 24.15 24.845 25.15 25.206 25.255 25.274 25.248 25.228 25.198 25.166 25.153 25.171 25.198 25.224 25.248 25.29 25.321 25.335 25.344 25.346 25.376 25.37 25.365 25.351 25.342 25.334 25.312 25.273 25.223 25.219 25.212 25.199 25.166 25.156 25.145 25.147 25.114 25.103 25.096 25.101 25.076 25.064 25.076 25.07 25.101 25.099 25.091 25.083 25.09 25.096 25.085 25.116 25.099 25.131 25.146 25.137 25.124 25.108 25.065 25.025 25.007 24.992 24.991 24.986 24.969 24.96 24.969 24.969 24.979 24.98 24.979 24.985 25.003 25.002 25.005 24.999 25.007 25.033 25.025 25.03 25.061 25.026 25.008 24.786 24.181 24.498 24.882 25.196 25.274 25.439 25.457 25.424 25.473 25.644 25.577 25.406 25.52 25.651 25.229 25.16 25.323 25.468 25.6 25.67 25.662 25.7 25.043 24.362 24.99 25.358 25.448 25.426 25.389 25.305 25.24 25.158 25.08 25.02 25.012 24.975 24.969 24.973 24.967 24.988 24.971 24.955 24.935 24.921 24.919 24.912 24.891 24.884 24.868 24.833 24.806 24.794 24.781 24.794 24.78 24.765 24.757 24.764 24.762 24.764 24.764 24.771 24.757 24.751 24.741 24.737 24.747 24.744 24.758 24.749 24.754 24.736 24.729 24.743 24.767 24.774 24.8 24.812 24.83 24.822 24.804 24.788 24.774 24.774 24.781 24.783 24.768 24.77 24.784 24.786 24.787 24.778 24.78 24.809 24.836 24.832 24.86 24.853 24.843 24.841 24.857 24.882 24.944 25.002 25.05 25.109 25.121 25.158 25.166 25.198 25.246 25.31 25.39 25.455 25.542 25.627 25.735 25.855 25.956 26.076 26.16 26.245 26.337 26.4 26.416 26.439 26.425 26.399 26.412 26.365 26.301 26.244 26.387 26.841 26.533 26.466 26.41 26.479 25.399 24.172 25.418 26.092 26.073 25.965 25.819 25.718 25.575 25.447 25.326 25.255 25.199 25.178 25.187 25.193 25.189 25.216 25.25 25.271 25.275 25.252 25.273 25.284 25.272 25.238 25.218 25.227 25.257 25.299 25.311 25.357 25.404 25.411 25.463 25.468 25.444 25.423 25.402 25.362 25.307 25.329 25.371 25.416 25.481 25.564 25.598 25.663 25.735 25.757 25.693 25.656 25.672 25.671 25.655 25.647 25.619
28.874 28.344 27.651 26.453 26.487 26.906 26.81 26.828 26.823 26.842 26.8 26.697 26.642 26.513 26.491 26.453 26.437 26.45 26.43 26.472 26.513 26.557 26.584 26.595 26.661 26.635 26.67 26.664 26.709 26.666 26.653 26.593 26.528 26.439 26.361 26.24 26.139 26.071 26.03 25.992 26.007 26.007 26.017 26.041 26.08 26.115 26.139 26.165 26.183 26.219 26.226 26.236 26.26 26.244 26.265 26.272 26.281 26.284 26.266 26.224 26.185 26.109 26.055 26.008 25.964 25.941 25.983 26.033 26.12 26.234 26.371 26.531 26.677 26.823 26.934 27.114 27.221 27.373 27.481 27.638 27.689 27.89 27.959 28.086 28.209 28.309 28.381 28.414 28.437 28.44 28.44 28.397 28.404 28.361 28.347 28.315 28.265 28.227 28.157 28.087 28.008 27.948 27.885 27.813 27.692 27.604 27.51 27.398 27.258 27.211 27.135 27.006 26.914 26.795 26.69 26.587 26.477 26.384 26.262 26.186 26.063 26.021 25.928 25.873 25.788 25.743 25.667 25.612 25.53 25.487 25.413 25.35 25.31 25.279 25.223 25.199 25.163 25.17 25.197 25.193 25.214 25.236 25.14 25.103 25.071 25.026 25.025 25.015 25.002 24.975 24.905 24.926 25.02 24.737 24.265 24.83 25.231 25.253 25.282 25.319 25.283 25.293 25.262 25.218 25.203 25.197 25.208 25.245 25.272 25.287 25.309 25.326 25.345 25.355 25.372 25.387 25.375 25.363 25.363 25.367 25.341 25.329 25.284 25.256 25.27 25.239 25.206 25.192 25.172 25.183 25.15 25.151 25.126 25.12 25.095 25.087 25.1 25.086 25.108 25.11 25.108 25.112 25.106 25.117 25.118 25.124 25.124 25.145 25.169 25.18 25.16 25.129 25.094 25.054 25.027 25.019 25.006 25.002 24.99 24.969 24.978 24.962 24.974 24.985 24.996 25.004 25.017 25.023 25.023 25.016 25.019 25.035 25.018 25.038 25.091 25.07 25.033 24.876 24.265 24.226 24.738 25.155 25.301 25.434 25.508 25.495 25.553 25.777 25.853 25.53 25.524 25.43 25.249 25.187 25.325 25.513 25.635 25.741 25.762 26.022 25.266 24.394 24.73 25.3 25.479 25.47 25.396 25.34 25.293 25.192 25.142 25.068 25.024 25.001 25.012 25.028 25.039 25.057 25.056 25.034 24.999 24.975 24.951 24.932 24.904 24.88 24.852 24.831 24.815 24.791 24.766 24.777 24.752 24.756 24.764 24.751 24.742 24.745 24.753 24.752 24.76 24.746 24.749 24.749 24.752 24.756 24.753 24.746 24.74 24.738 24.738 24.743 24.749 24.751 24.777 24.796 24.818 24.816 24.805 24.786 24.789 24.779 24.761 24.769 24.778 24.769 24.794 24.816 24.813 24.793 24.804 24.841 24.887 24.879 24.887 24.888 24.906 24.9 24.911 24.961 25.005 25.057 25.115 25.169 25.188 25.215 25.25 25.283 25.33 25.399 25.461 25.534 25.616 25.698 25.832 25.937 26.056 26.143 26.268 26.36 26.422 26.483 26.502 26.546 26.497 26.466 26.451 26.434 26.531 26.605 26.867 27.298 26.733 26.518 26.584 26.812 25.904 24.492 25.195 25.996 26.131 26.045 25.904 25.76 25.595 25.448 25.321 25.23 25.185 25.19 25.231 25.237 25.255 25.265 25.266 25.322 25.31 25.311 25.31 25.289 25.266 25.206 25.184 25.173 25.201 25.245 25.251 25.311 25.363 25.388 25.415 25.421 25.433 25.409 25.38 25.323 25.293 25.335 25.411 25.447 25.52 25.635 25.697 25.768 25.821 25.844 25.801 25.765 25.779 25.768 25.745 25.733 25.68
28.936 28.409 27.936 26.49 26.507 26.84 26.785 26.826 26.831 26.846 26.821 26.707 26.648 26.534 26.47 26.411 26.378 26.385 26.387 26.376 26.414 26.425 26.47 26.464 26.552 26.52 26.576 26.594 26.637 26.633 26.616 26.597 26.526 26.453 26.338 26.219 26.109 26.024 25.961 25.947 25.934 25.926 25.935 25.959 25.97 26.019 26.017 26.065 26.075 26.112 26.102 26.151 26.129 26.193 26.186 26.226 26.235 26.264 26.215 26.218 26.145 26.103 26.031 26.003 25.98 25.983 26.034 26.113 26.235 26.355 26.467 26.66 26.813 26.974 27.09 27.217 27.344 27.455 27.603 27.772 27.832 27.961 28.088 28.16 28.255 28.319 28.394 28.394 28.414 28.395 28.38 28.37 28.331 28.298 28.271 28.23 28.158 28.096 28.056 27.999 27.93 27.827 27.738 27.642 27.541 27.474 27.34 27.215 27.118 26.998 26.895 26.849 26.725 26.625 26.554 26.404 26.327 26.253 26.175 26.068 26.019 25.921 25.86 25.817 25.757 25.695 25.642 25.544 25.489 25.419 25.372 25.342 25.295 25.242 25.21 25.157 25.118 25.137 25.157 25.173 25.161 25.178 25.138 25.07 25.05 25.01 25.006 25.001 25.019 25.02 24.957 24.94 25.046 24.867 24.173 24.441 25.196 25.259 25.313 25.347 25.358 25.361 25.342 25.279 25.258 25.242 25.231 25.244 25.289 25.289 25.306 25.337 25.356 25.364 25.38 25.405 25.404 25.398 25.387 25.391 25.395 25.381 25.329 25.293 25.3 25.297 25.245 25.233 25.215 25.222 25.157 25.199 25.16 25.143 25.121 25.105 25.115 25.114 25.125 25.141 25.128 25.128 25.122 25.124 25.129 25.144 25.146 25.162 25.177 25.19 25.179 25.168 25.126 25.088 25.064 25.052 25.033 25.021 25.017 25.005 24.98 24.965 24.979 24.998 25 25.008 25.034 25.037 25.045 25.021 25.016 25.031 25.042 25.049 25.114 25.116 25.049 24.986 24.664 24.172 24.625 25.098 25.318 25.463 25.601 25.597 25.564 25.602 25.584 25.415 25.406 25.281 25.207 25.3 25.36 25.584 25.613 25.759 25.703 25.77 25.431 24.546 24.714 25.215 25.462 25.492 25.437 25.398 25.347 25.266 25.214 25.151 25.125 25.102 25.123 25.129 25.134 25.119 25.102 25.059 25.025 24.998 24.965 24.937 24.911 24.862 24.835 24.824 24.796 24.78 24.764 24.748 24.751 24.751 24.755 24.752 24.755 24.755 24.768 24.772 24.764 24.753 24.76 24.756 24.77 24.763 24.752 24.733 24.729 24.733 24.732 24.728 24.732 24.725 24.754 24.765 24.786 24.784 24.796 24.794 24.804 24.803 24.789 24.789 24.804 24.82 24.833 24.84 24.83 24.838 24.849 24.873 24.902 24.912 24.939 24.94 24.941 24.945 24.964 25.026 25.062 25.131 25.167 25.221 25.261 25.289 25.318 25.348 25.421 25.467 25.537 25.623 25.691 25.751 25.864 25.968 26.098 26.207 26.319 26.41 26.473 26.531 26.527 26.516 26.627 26.733 26.822 26.892 26.921 26.891 26.994 26.714 26.771 26.652 26.689 26.789 26.56 25.477 24.884 25.88 26.138 26.065 25.969 25.816 25.646 25.491 25.361 25.29 25.227 25.232 25.247 25.251 25.263 25.247 25.237 25.268 25.29 25.285 25.277 25.245 25.209 25.178 25.146 25.147 25.176 25.209 25.248 25.292 25.329 25.363 25.391 25.408 25.411 25.42 25.419 25.367 25.318 25.319 25.413 25.497 25.57 25.713 25.783 25.848 25.899 25.915 25.905 25.873 25.864 25.869 25.842 25.792 25.736
29.035 28.528 27.985 26.704 26.664 26.822 26.769 26.824 26.824 26.834 26.827 26.724 26.615 26.538 26.433 26.397 26.342 26.334 26.314 26.3 26.339 26.334 26.379 26.363 26.439 26.419 26.49 26.522 26.542 26.593 26.576 26.571 26.506 26.448 26.343 26.215 26.117 26.019 25.934 25.918 25.868 25.876 25.875 25.883 25.885 25.934 25.949 25.97 25.977 26.007 26.002 26.061 26.079 26.147 26.141 26.193 26.187 26.217 26.183 26.186 26.124 26.069 26.021 26.012 26 26.083 26.074 26.215 26.332 26.495 26.621 26.8 26.934 27.096 27.233 27.344 27.474 27.572 27.724 27.816 27.945 28.019 28.163 28.203 28.302 28.325 28.362 28.374 28.363 28.349 28.318 28.307 28.245 28.223 28.183 28.116 28.068 28.001 27.936 27.861 27.763 27.662 27.607 27.502 27.34 27.268 27.131 27.037 26.885 26.826 26.76 26.679 26.569 26.46 26.401 26.307 26.225 26.117 26.065 25.996 25.938 25.864 25.806 25.749 25.713 25.655 25.595 25.524 25.446 25.407 25.364 25.311 25.287 25.26 25.231 25.177 25.147 25.118 25.119 25.142 25.137 25.17 25.134 25.056 25.056 25.024 25.021 25.039 25.044 25.04 25.009 24.985 25.02 25.001 24.133 24.152 25.15 25.279 25.371 25.398 25.402 25.4 25.384 25.335 25.315 25.29 25.272 25.262 25.319 25.323 25.308 25.331 25.361 25.376 25.388 25.428 25.438 25.441 25.435 25.432 25.445 25.435 25.402 25.347 25.335 25.328 25.27 25.269 25.243 25.225 25.205 25.213 25.211 25.173 25.145 25.127 25.121 25.1 25.111 25.168 25.163 25.151 25.143 25.137 25.14 25.151 25.17 25.169 25.18 25.205 25.199 25.189 25.156 25.128 25.103 25.079 25.059 25.04 25.039 25.014 24.998 24.983 24.988 25.017 25.02 25.026 25.047 25.027 25.042 25.034 25.024 25.028 25.052 25.059 25.129 25.135 25.053 25.029 24.936 24.37 24.62 24.999 25.399 25.452 25.575 25.592 25.508 25.513 25.58 25.466 25.369 25.282 25.141 25.177 25.301 25.379 25.483 25.65 25.659 25.724 25.519 24.874 24.596 25.036 25.413 25.467 25.466 25.424 25.408 25.385 25.323 25.284 25.252 25.198 25.219 25.215 25.201 25.18 25.14 25.084 25.04 25.007 24.966 24.933 24.908 24.863 24.829 24.807 24.784 24.758 24.755 24.756 24.778 24.76 24.761 24.781 24.784 24.781 24.778 24.779 24.769 24.762 24.768 24.759 24.762 24.765 24.753 24.738 24.74 24.723 24.722 24.707 24.711 24.7 24.735 24.765 24.794 24.802 24.811 24.819 24.83 24.828 24.827 24.84 24.846 24.836 24.857 24.861 24.864 24.873 24.886 24.885 24.902 24.91 24.947 24.963 24.991 25.007 25.06 25.093 25.158 25.203 25.24 25.282 25.339 25.377 25.401 25.453 25.502 25.566 25.631 25.683 25.772 25.823 25.898 26.002 26.123 26.24 26.347 26.413 26.468 26.583 26.743 27.057 27.207 27.065 26.923 26.757 26.821 26.755 26.761 26.866 26.827 26.752 26.678 26.662 26.602 25.865 24.32 25.616 26.133 26.081 25.982 25.859 25.722 25.552 25.422 25.301 25.223 25.21 25.191 25.203 25.233 25.246 25.208 25.189 25.219 25.203 25.214 25.222 25.2 25.146 25.139 25.158 25.174 25.192 25.233 25.296 25.329 25.374 25.397 25.395 25.398 25.409 25.394 25.356 25.296 25.299 25.374 25.508 25.618 25.752 25.838 25.905 25.957 25.992 25.973 25.954 25.95 25.911 25.882 25.831 25.766
29.078 28.639 28.007 26.996 26.664 26.838 26.801 26.811 26.823 26.826 26.839 26.747 26.62 26.561 26.452 26.414 26.322 26.311 26.274 26.255 26.257 26.25 26.286 26.304 26.302 26.325 26.365 26.423 26.432 26.525 26.522 26.524 26.462 26.443 26.361 26.246 26.127 26.013 25.882 25.865 25.854 25.837 25.804 25.831 25.826 25.855 25.847 25.868 25.884 25.911 25.931 25.979 26 26.077 26.115 26.133 26.165 26.178 26.148 26.143 26.085 26.047 26.008 26.015 26.021 26.129 26.176 26.357 26.427 26.573 26.718 26.89 27.062 27.185 27.363 27.445 27.58 27.653 27.799 27.842 28.001 28.042 28.182 28.231 28.287 28.332 28.321 28.354 28.315 28.309 28.277 28.234 28.169 28.14 28.092 28.016 27.945 27.863 27.8 27.702 27.579 27.501 27.38 27.349 27.192 27.096 26.95 26.855 26.747 26.678 26.618 26.513 26.462 26.373 26.299 26.222 26.134 26.046 25.981 25.901 25.855 25.795 25.752 25.708 25.694 25.611 25.56 25.502 25.456 25.426 25.36 25.305 25.259 25.229 25.205 25.165 25.144 25.126 25.117 25.12 25.147 25.16 25.14 25.075 25.055 25.013 25.022 25.07 25.077 25.091 25.078 25.047 25.069 25.08 24.342 24.091 25.135 25.288 25.405 25.431 25.444 25.437 25.423 25.409 25.384 25.343 25.305 25.292 25.324 25.343 25.324 25.335 25.371 25.385 25.404 25.444 25.468 25.472 25.475 25.479 25.487 25.481 25.475 25.416 25.374 25.382 25.331 25.32 25.292 25.295 25.27 25.246 25.239 25.198 25.167 25.126 25.113 25.128 25.13 25.179 25.184 25.163 25.153 25.151 25.148 25.178 25.185 25.166 25.185 25.221 25.23 25.217 25.192 25.169 25.133 25.085 25.069 25.038 25.055 25.029 25.019 25.018 25.007 25.025 25.035 25.034 25.038 25.039 25.038 25.033 25.023 25.018 25.046 25.056 25.123 25.142 25.068 25.026 24.97 24.453 24.526 24.902 25.349 25.396 25.472 25.475 25.456 25.444 25.396 25.352 25.274 25.202 25.13 25.209 25.363 25.338 25.392 25.495 25.627 25.705 25.533 24.945 24.42 24.915 25.341 25.454 25.478 25.457 25.467 25.475 25.447 25.41 25.344 25.344 25.299 25.292 25.268 25.245 25.212 25.124 25.084 25.001 24.949 24.915 24.855 24.829 24.793 24.773 24.772 24.741 24.747 24.751 24.767 24.788 24.783 24.787 24.788 24.776 24.776 24.783 24.768 24.758 24.757 24.751 24.783 24.776 24.776 24.768 24.761 24.736 24.72 24.718 24.731 24.749 24.767 24.774 24.786 24.81 24.824 24.835 24.856 24.852 24.854 24.866 24.871 24.884 24.903 24.907 24.892 24.906 24.911 24.931 24.932 24.95 24.981 25.008 25.039 25.082 25.124 25.177 25.265 25.31 25.372 25.424 25.466 25.48 25.529 25.572 25.605 25.668 25.703 25.747 25.802 25.873 25.94 26.046 26.143 26.217 26.405 26.712 26.884 26.887 26.881 26.892 26.85 26.833 26.832 26.811 26.816 26.867 26.851 26.871 26.843 26.773 26.719 26.711 26.605 25.797 24.392 25.55 26.072 26.176 25.999 25.887 25.771 25.617 25.46 25.272 25.183 25.161 25.165 25.195 25.21 25.216 25.198 25.182 25.187 25.164 25.17 25.18 25.165 25.13 25.142 25.14 25.157 25.204 25.239 25.277 25.328 25.38 25.386 25.369 25.354 25.365 25.352 25.316 25.274 25.276 25.378 25.517 25.651 25.753 25.872 25.94 26.008 26.032 26.029 26.022 25.988 25.938 25.894 25.821 25.773
29.098 28.8 27.937 27.31 26.695 26.926 26.804 26.802 26.86 26.859 26.839 26.793 26.624 26.567 26.457 26.417 26.32 26.269 26.228 26.205 26.209 26.21 26.222 26.235 26.213 26.272 26.25 26.362 26.353 26.44 26.403 26.45 26.438 26.387 26.363 26.247 26.148 26.027 25.919 25.843 25.805 25.793 25.757 25.756 25.774 25.767 25.789 25.79 25.825 25.85 25.866 25.901 25.965 26.017 26.068 26.095 26.104 26.121 26.113 26.073 26.025 26.007 26 26.018 26.051 26.147 26.215 26.391 26.561 26.704 26.878 26.998 27.19 27.282 27.406 27.521 27.669 27.745 27.849 27.914 28.039 28.073 28.149 28.224 28.256 28.305 28.285 28.299 28.256 28.227 28.179 28.146 28.058 28.02 27.917 27.874 27.8 27.711 27.59 27.524 27.421 27.325 27.187 27.088 27.002 26.925 26.832 26.731 26.648 26.575 26.499 26.418 26.373 26.299 26.224 26.147 26.087 25.99 25.943 25.869 25.805 25.755 25.71 25.69 25.673 25.616 25.576 25.496 25.447 25.397 25.355 25.298 25.254 25.234 25.215 25.164 25.153 25.166 25.14 25.127 25.152 25.14 25.144 25.07 25.051 25.041 25.02 25.083 25.103 25.151 25.141 25.105 25.126 25.166 24.662 23.959 24.761 25.354 25.424 25.478 25.487 25.475 25.468 25.44 25.425 25.41 25.367 25.335 25.334 25.364 25.346 25.348 25.37 25.415 25.431 25.453 25.481 25.511 25.515 25.51 25.525 25.522 25.525 25.483 25.443 25.432 25.385 25.386 25.343 25.335 25.323 25.283 25.254 25.233 25.187 25.153 25.142 25.124 25.134 25.175 25.186 25.167 25.156 25.171 25.159 25.183 25.186 25.195 25.203 25.233 25.257 25.234 25.222 25.191 25.142 25.092 25.068 25.043 25.071 25.048 25.034 25.037 25.027 25.044 25.058 25.043 25.056 25.058 25.048 25.041 25.026 25.027 25.051 25.062 25.105 25.156 25.096 25.04 24.995 24.636 24.544 24.854 25.16 25.298 25.352 25.398 25.434 25.432 25.452 25.513 25.347 25.316 25.189 25.236 25.412 25.383 25.382 25.514 25.64 25.585 25.494 25.216 24.524 24.718 25.254 25.469 25.512 25.516 25.526 25.541 25.551 25.523 25.472 25.421 25.374 25.352 25.312 25.28 25.24 25.165 25.1 24.993 24.939 24.879 24.818 24.785 24.76 24.761 24.756 24.743 24.748 24.756 24.78 24.799 24.793 24.791 24.785 24.781 24.767 24.763 24.755 24.758 24.761 24.756 24.771 24.764 24.782 24.786 24.781 24.768 24.76 24.758 24.767 24.779 24.784 24.809 24.811 24.823 24.831 24.854 24.873 24.875 24.892 24.909 24.914 24.922 24.933 24.946 24.93 24.929 24.941 24.956 24.981 25.007 25.04 25.092 25.139 25.163 25.222 25.284 25.353 25.409 25.49 25.539 25.583 25.616 25.643 25.668 25.679 25.712 25.73 25.786 25.816 25.901 25.979 26.139 26.275 26.402 26.623 26.742 26.797 26.84 26.824 26.788 26.773 26.797 26.765 26.755 26.796 26.831 26.872 26.889 26.876 26.824 26.775 26.826 26.847 26.507 24.418 24.978 25.917 26.099 25.998 25.888 25.797 25.683 25.495 25.311 25.195 25.141 25.162 25.187 25.21 25.205 25.188 25.194 25.191 25.195 25.196 25.185 25.174 25.14 25.127 25.157 25.175 25.192 25.232 25.261 25.304 25.378 25.368 25.364 25.349 25.352 25.327 25.292 25.276 25.288 25.351 25.491 25.613 25.737 25.867 25.952 26.028 26.07 26.06 26.051 26.026 25.962 25.883 25.835 25.791
29.067 28.943 28.001 27.5 26.931 26.998 26.813 26.83 26.855 26.882 26.852 26.8 26.667 26.574 26.482 26.398 26.328 26.251 26.224 26.202 26.201 26.193 26.176 26.19 26.199 26.223 26.215 26.269 26.263 26.334 26.345 26.412 26.402 26.359 26.327 26.232 26.145 25.998 25.905 25.799 25.769 25.748 25.726 25.725 25.726 25.741 25.778 25.756 25.78 25.766 25.816 25.834 25.895 25.911 25.997 26.027 26.08 26.056 26.071 26.047 26.004 25.977 26.003 26.022 26.105 26.214 26.352 26.476 26.694 26.802 26.964 27.091 27.264 27.385 27.505 27.613 27.723 27.792 27.885 27.966 28.035 28.103 28.145 28.204 28.23 28.234 28.22 28.186 28.149 28.122 28.106 28.037 27.956 27.874 27.796 27.713 27.649 27.562 27.439 27.328 27.214 27.134 27.01 26.886 26.861 26.751 26.675 26.56 26.522 26.45 26.387 26.349 26.31 26.259 26.2 26.106 26.054 25.99 25.922 25.845 25.76 25.733 25.683 25.656 25.623 25.596 25.534 25.474 25.41 25.391 25.336 25.294 25.264 25.228 25.197 25.183 25.168 25.157 25.125 25.129 25.15 25.16 25.157 25.086 25.03 25.024 25.013 25.084 25.146 25.205 25.21 25.169 25.172 25.241 25.012 24.024 24.639 25.432 25.466 25.541 25.537 25.516 25.491 25.463 25.457 25.444 25.402 25.378 25.368 25.399 25.365 25.376 25.4 25.42 25.443 25.462 25.492 25.555 25.571 25.567 25.573 25.576 25.582 25.571 25.519 25.49 25.465 25.436 25.416 25.401 25.365 25.325 25.304 25.256 25.198 25.178 25.164 25.142 25.142 25.156 25.18 25.184 25.179 25.187 25.187 25.174 25.206 25.206 25.208 25.224 25.263 25.258 25.254 25.204 25.139 25.095 25.046 25.028 25.052 25.053 25.056 25.058 25.05 25.068 25.079 25.06 25.07 25.053 25.043 25.056 25.034 25.037 25.044 25.07 25.094 25.159 25.109 25.058 25.038 24.891 24.551 24.854 25.019 25.232 25.254 25.371 25.441 25.528 25.479 25.423 25.521 25.408 25.208 25.158 25.281 25.347 25.421 25.571 25.654 25.588 25.49 25.263 24.774 24.692 25.205 25.493 25.528 25.565 25.595 25.602 25.622 25.608 25.562 25.495 25.438 25.39 25.353 25.315 25.256 25.18 25.089 24.995 24.91 24.857 24.806 24.773 24.762 24.747 24.744 24.736 24.736 24.756 24.78 24.78 24.784 24.781 24.78 24.776 24.756 24.744 24.75 24.749 24.759 24.755 24.769 24.782 24.796 24.799 24.802 24.818 24.81 24.805 24.818 24.811 24.813 24.828 24.824 24.85 24.871 24.889 24.907 24.943 24.932 24.938 24.945 24.961 24.966 24.972 24.986 24.983 24.99 25.017 25.04 25.073 25.106 25.165 25.202 25.263 25.316 25.381 25.467 25.525 25.595 25.635 25.668 25.695 25.725 25.737 25.761 25.76 25.789 25.824 25.899 26.037 26.102 26.36 26.477 26.628 26.673 26.758 26.773 26.762 26.78 26.8 26.805 26.803 26.796 26.79 26.841 26.869 26.919 26.918 26.925 26.915 26.859 26.87 26.953 26.813 25.692 24.836 25.821 26.109 26.056 25.91 25.838 25.735 25.559 25.331 25.197 25.144 25.144 25.203 25.212 25.209 25.209 25.199 25.223 25.213 25.197 25.208 25.186 25.179 25.153 25.149 25.171 25.189 25.209 25.252 25.274 25.334 25.385 25.4 25.401 25.395 25.386 25.357 25.32 25.335 25.392 25.476 25.593 25.714 25.833 25.968 26.037 26.064 26.098 26.056 26.028 25.938 25.848 25.796 25.768
29.076 28.932 28.024 27.453 27.056 27.103 26.931 26.843 26.875 26.919 26.879 26.826 26.701 26.595 26.51 26.404 26.36 26.28 26.239 26.202 26.208 26.168 26.162 26.152 26.177 26.178 26.167 26.212 26.223 26.254 26.274 26.31 26.356 26.332 26.291 26.202 26.14 26.017 25.915 25.822 25.777 25.723 25.727 25.695 25.704 25.713 25.742 25.722 25.732 25.732 25.771 25.775 25.825 25.868 25.967 25.953 26.005 26.007 26.024 25.978 25.967 25.951 26.009 26.047 26.145 26.242 26.454 26.592 26.761 26.891 27.074 27.238 27.373 27.469 27.529 27.667 27.736 27.826 27.882 27.973 28.004 28.08 28.111 28.163 28.164 28.159 28.17 28.123 28.091 28.022 27.966 27.931 27.823 27.756 27.636 27.588 27.452 27.357 27.21 27.158 27.03 26.92 26.834 26.712 26.67 26.61 26.558 26.496 26.446 26.367 26.322 26.303 26.278 26.242 26.205 26.148 26.087 26.037 25.897 25.843 25.758 25.734 25.674 25.641 25.6 25.587 25.531 25.476 25.415 25.378 25.332 25.311 25.279 25.245 25.211 25.201 25.173 25.154 25.129 25.117 25.137 25.119 25.138 25.075 25.018 25.02 25.024 25.087 25.175 25.251 25.278 25.246 25.231 25.318 25.218 24.071 24.291 25.463 25.536 25.579 25.577 25.554 25.517 25.493 25.483 25.466 25.437 25.404 25.388 25.406 25.395 25.402 25.427 25.442 25.457 25.498 25.526 25.575 25.612 25.605 25.62 25.64 25.647 25.655 25.593 25.579 25.556 25.526 25.505 25.457 25.427 25.379 25.332 25.315 25.242 25.192 25.186 25.147 25.152 25.163 25.189 25.19 25.172 25.178 25.195 25.181 25.208 25.208 25.217 25.227 25.272 25.275 25.266 25.228 25.184 25.111 25.062 25.072 25.061 25.076 25.05 25.066 25.075 25.088 25.094 25.077 25.066 25.054 25.032 25.045 25.034 25.03 25.044 25.09 25.072 25.158 25.154 25.079 25.068 24.952 24.514 24.741 24.932 25.338 25.293 25.37 25.408 25.433 25.406 25.358 25.413 25.344 25.188 25.156 25.232 25.269 25.402 25.584 25.741 25.636 25.518 25.364 24.698 24.508 25.066 25.464 25.544 25.592 25.618 25.65 25.657 25.662 25.62 25.548 25.474 25.412 25.352 25.315 25.258 25.171 25.085 24.995 24.884 24.832 24.79 24.764 24.744 24.733 24.719 24.718 24.725 24.745 24.749 24.753 24.774 24.767 24.777 24.788 24.769 24.758 24.761 24.761 24.782 24.799 24.79 24.803 24.812 24.829 24.832 24.826 24.825 24.826 24.826 24.832 24.846 24.864 24.855 24.861 24.894 24.922 24.915 24.947 24.951 24.961 24.993 25.003 25.006 25.018 25.032 25.069 25.059 25.08 25.108 25.125 25.178 25.246 25.27 25.343 25.412 25.489 25.567 25.612 25.688 25.753 25.758 25.787 25.809 25.818 25.905 25.939 25.913 25.992 26.009 25.978 26.172 26.386 26.499 26.639 26.64 26.683 26.708 26.772 26.824 26.841 26.847 26.835 26.846 26.833 26.861 26.879 26.907 26.95 26.967 26.948 26.937 26.923 27.005 26.922 25.498 24.361 25.686 26.071 26.031 25.964 25.862 25.722 25.518 25.352 25.219 25.17 25.203 25.243 25.271 25.29 25.265 25.25 25.245 25.211 25.191 25.203 25.187 25.158 25.128 25.139 25.165 25.17 25.188 25.246 25.296 25.35 25.448 25.489 25.498 25.518 25.506 25.467 25.439 25.422 25.459 25.515 25.58 25.642 25.774 25.89 25.991 26.064 26.089 26.068 26.015 25.911 25.813 25.756 25.73
28.962 28.94 28.301 27.409 27.013 27.145 27.027 26.866 26.886 26.925 26.899 26.817 26.703 26.565 26.525 26.401 26.37 26.257 26.237 26.219 26.194 26.168 26.158 26.151 26.13 26.134 26.145 26.15 26.172 26.148 26.207 26.22 26.302 26.279 26.263 26.21 26.15 26.059 25.912 25.839 25.772 25.693 25.691 25.679 25.715 25.705 25.722 25.717 25.712 25.718 25.737 25.754 25.793 25.828 25.896 25.911 25.945 25.948 25.944 25.914 25.911 25.923 26.001 26.04 26.21 26.304 26.483 26.656 26.886 27.025 27.116 27.278 27.414 27.546 27.582 27.697 27.713 27.833 27.836 27.946 27.966 28.049 28.053 28.119 28.092 28.088 28.07 28.015 27.976 27.913 27.861 27.777 27.664 27.581 27.426 27.326 27.211 27.121 27.001 26.935 26.831 26.758 26.673 26.579 26.515 26.475 26.44 26.377 26.363 26.289 26.279 26.28 26.255 26.23 26.245 26.183 26.118 26.065 25.94 25.879 25.787 25.732 25.683 25.635 25.591 25.565 25.514 25.472 25.411 25.381 25.346 25.292 25.281 25.257 25.243 25.208 25.181 25.145 25.124 25.124 25.101 25.11 25.101 25.054 25.008 24.997 25.029 25.085 25.196 25.265 25.334 25.313 25.304 25.373 25.442 24.321 24.091 25.426 25.571 25.632 25.634 25.579 25.559 25.523 25.498 25.483 25.452 25.429 25.416 25.442 25.429 25.42 25.428 25.453 25.49 25.536 25.568 25.613 25.658 25.665 25.67 25.694 25.712 25.716 25.68 25.648 25.626 25.594 25.561 25.491 25.484 25.405 25.361 25.323 25.256 25.205 25.196 25.165 25.167 25.171 25.191 25.191 25.184 25.192 25.201 25.189 25.214 25.229 25.223 25.23 25.267 25.276 25.266 25.257 25.208 25.129 25.08 25.082 25.076 25.098 25.07 25.072 25.081 25.102 25.116 25.089 25.063 25.061 25.035 25.052 25.057 25.052 25.062 25.078 25.052 25.139 25.165 25.1 25.09 25.117 24.634 24.653 24.904 25.551 25.401 25.316 25.344 25.345 25.328 25.402 25.314 25.313 25.21 25.088 25.143 25.256 25.315 25.447 25.622 25.566 25.532 25.494 24.896 24.487 24.759 25.33 25.545 25.576 25.594 25.654 25.688 25.694 25.665 25.588 25.534 25.432 25.38 25.321 25.249 25.198 25.083 24.978 24.889 24.819 24.779 24.741 24.717 24.713 24.713 24.713 24.713 24.74 24.76 24.767 24.779 24.783 24.788 24.782 24.783 24.779 24.784 24.792 24.78 24.803 24.808 24.811 24.813 24.814 24.821 24.825 24.84 24.869 24.866 24.869 24.868 24.875 24.881 24.892 24.887 24.908 24.929 24.959 24.974 25.005 25.04 25.078 25.09 25.085 25.092 25.131 25.143 25.153 25.183 25.209 25.284 25.329 25.376 25.434 25.487 25.585 25.648 25.704 25.77 25.821 26.072 26.119 26.104 26.121 26.1 26.101 26.041 26.115 26.152 26.234 26.316 26.371 26.46 26.563 26.629 26.682 26.762 26.811 26.865 26.889 26.905 26.875 26.861 26.876 26.912 26.918 26.94 26.989 26.985 26.986 26.995 26.983 26.999 26.996 25.897 24.442 25.509 26.064 26.072 25.976 25.875 25.76 25.538 25.35 25.245 25.239 25.262 25.283 25.338 25.345 25.326 25.315 25.282 25.237 25.205 25.191 25.194 25.157 25.136 25.119 25.131 25.153 25.21 25.262 25.352 25.429 25.514 25.569 25.619 25.633 25.624 25.602 25.582 25.549 25.558 25.558 25.608 25.633 25.728 25.882 25.974 26.043 26.091 26.083 25.999 25.908 25.795 25.724 25.663
28.957 28.956 28.424 27.392 26.806 27.124 27.004 26.874 26.878 26.915 26.911 26.798 26.748 26.567 26.526 26.424 26.361 26.285 26.228 26.219 26.2 26.169 26.143 26.134 26.091 26.084 26.094 26.095 26.119 26.096 26.151 26.141 26.215 26.212 26.221 26.205 26.166 26.073 25.962 25.899 25.785 25.749 25.71 25.701 25.707 25.725 25.724 25.74 25.714 25.717 25.71 25.716 25.733 25.775 25.818 25.848 25.848 25.879 25.866 25.857 25.878 25.917 26.006 26.083 26.209 26.405 26.525 26.705 26.874 27.033 27.186 27.335 27.441 27.545 27.614 27.68 27.713 27.809 27.822 27.895 27.894 27.953 27.985 28.005 27.985 27.967 27.967 27.905 27.856 27.793 27.716 27.611 27.491 27.398 27.281 27.163 27.036 26.902 26.809 26.777 26.64 26.576 26.504 26.448 26.408 26.373 26.33 26.299 26.255 26.27 26.266 26.277 26.262 26.281 26.257 26.211 26.163 26.1 25.998 25.922 25.818 25.744 25.679 25.655 25.591 25.546 25.49 25.453 25.425 25.41 25.348 25.316 25.319 25.283 25.241 25.202 25.156 25.116 25.126 25.106 25.092 25.084 25.079 25.063 25.009 24.989 25.045 25.114 25.213 25.287 25.387 25.386 25.371 25.414 25.459 24.493 24.03 25.298 25.637 25.675 25.673 25.621 25.6 25.549 25.52 25.49 25.465 25.439 25.433 25.444 25.446 25.442 25.458 25.473 25.511 25.556 25.624 25.658 25.709 25.721 25.721 25.757 25.785 25.782 25.756 25.716 25.695 25.645 25.609 25.525 25.511 25.443 25.389 25.323 25.283 25.226 25.219 25.206 25.2 25.188 25.208 25.203 25.196 25.206 25.21 25.202 25.212 25.228 25.226 25.235 25.27 25.29 25.279 25.27 25.225 25.186 25.118 25.101 25.086 25.094 25.074 25.065 25.102 25.105 25.124 25.098 25.065 25.058 25.047 25.055 25.064 25.058 25.075 25.084 25.071 25.131 25.197 25.155 25.104 25.143 24.867 24.612 24.829 25.201 25.25 25.27 25.306 25.306 25.344 25.377 25.315 25.317 25.243 25.074 25.09 25.223 25.338 25.443 25.522 25.524 25.68 25.531 25.046 24.747 24.745 25.234 25.503 25.553 25.597 25.657 25.7 25.707 25.684 25.597 25.529 25.459 25.402 25.314 25.254 25.179 25.064 24.978 24.874 24.817 24.753 24.726 24.712 24.691 24.695 24.706 24.714 24.733 24.761 24.762 24.781 24.796 24.802 24.802 24.801 24.803 24.8 24.803 24.8 24.809 24.812 24.809 24.824 24.815 24.833 24.842 24.858 24.892 24.88 24.871 24.881 24.898 24.883 24.908 24.913 24.927 24.951 24.983 25.014 25.042 25.112 25.14 25.16 25.177 25.162 25.189 25.201 25.228 25.256 25.296 25.355 25.411 25.468 25.524 25.592 25.671 25.823 26.008 26.012 26.229 26.45 26.478 26.266 26.11 26.193 26.243 26.234 26.233 26.265 26.31 26.356 26.427 26.513 26.591 26.657 26.725 26.806 26.858 26.896 26.896 26.916 26.903 26.91 26.916 26.951 26.976 26.974 26.983 26.96 26.943 26.96 26.981 26.976 26.982 26.392 24.352 24.967 25.929 26.066 25.991 25.879 25.7 25.521 25.371 25.312 25.292 25.301 25.337 25.369 25.407 25.419 25.39 25.328 25.274 25.229 25.193 25.199 25.185 25.157 25.119 25.128 25.174 25.241 25.328 25.392 25.482 25.553 25.635 25.693 25.729 25.719 25.723 25.71 25.691 25.657 25.648 25.662 25.705 25.768 25.894 25.954 26.027 26.062 26.063 25.97 25.863 25.746 25.669 25.629
28.957 28.944 28.617 27.561 26.7 27.082 26.98 26.893 26.934 26.934 26.904 26.789 26.719 26.574 26.497 26.422 26.358 26.296 26.225 26.196 26.166 26.176 26.127 26.114 26.096 26.08 26.079 26.045 26.072 26.078 26.099 26.094 26.151 26.188 26.201 26.234 26.155 26.116 26.02 25.922 25.82 25.748 25.725 25.716 25.725 25.723 25.718 25.756 25.73 25.726 25.709 25.718 25.718 25.748 25.761 25.81 25.808 25.828 25.825 25.873 25.864 25.938 26.024 26.15 26.29 26.423 26.583 26.805 26.951 27.113 27.262 27.4 27.477 27.548 27.605 27.66 27.704 27.747 27.769 27.807 27.837 27.873 27.899 27.887 27.878 27.859 27.841 27.799 27.73 27.676 27.575 27.446 27.324 27.19 27.085 26.954 26.85 26.729 26.604 26.518 26.446 26.409 26.36 26.345 26.283 26.271 26.254 26.231 26.233 26.25 26.236 26.269 26.261 26.275 26.261 26.229 26.192 26.113 26.041 25.94 25.866 25.783 25.721 25.686 25.611 25.567 25.512 25.479 25.432 25.424 25.371 25.337 25.322 25.292 25.268 25.243 25.187 25.146 25.146 25.131 25.097 25.032 25.052 25.046 25.016 24.977 25.023 25.085 25.226 25.315 25.429 25.445 25.432 25.419 25.5 24.862 23.994 24.894 25.692 25.701 25.719 25.662 25.635 25.589 25.531 25.479 25.482 25.46 25.46 25.454 25.467 25.456 25.474 25.508 25.538 25.588 25.667 25.714 25.782 25.792 25.783 25.815 25.861 25.839 25.81 25.781 25.738 25.684 25.633 25.567 25.529 25.479 25.435 25.349 25.318 25.275 25.246 25.239 25.224 25.219 25.216 25.218 25.212 25.209 25.23 25.223 25.218 25.221 25.235 25.237 25.253 25.294 25.273 25.273 25.236 25.182 25.146 25.116 25.108 25.111 25.088 25.069 25.09 25.107 25.116 25.1 25.06 25.059 25.052 25.057 25.077 25.057 25.08 25.084 25.079 25.103 25.207 25.193 25.122 25.141 24.939 24.71 25.017 25.181 25.32 25.273 25.246 25.252 25.255 25.301 25.323 25.245 25.224 25.174 25.095 25.193 25.355 25.459 25.507 25.551 25.635 25.465 25.129 24.871 24.688 25.188 25.464 25.513 25.576 25.606 25.678 25.689 25.673 25.602 25.543 25.465 25.387 25.331 25.251 25.167 25.06 24.954 24.863 24.812 24.75 24.72 24.7 24.682 24.681 24.692 24.725 24.751 24.779 24.777 24.789 24.805 24.808 24.821 24.836 24.829 24.834 24.833 24.82 24.806 24.802 24.802 24.81 24.827 24.839 24.857 24.877 24.887 24.885 24.881 24.899 24.881 24.906 24.918 24.934 24.96 25.011 25.04 25.074 25.105 25.153 25.174 25.205 25.229 25.231 25.263 25.287 25.308 25.354 25.356 25.4 25.475 25.539 25.688 25.806 26.049 26.178 26.297 26.33 26.338 26.413 26.437 26.366 26.341 26.357 26.316 26.332 26.343 26.369 26.386 26.445 26.51 26.586 26.635 26.693 26.735 26.809 26.858 26.901 26.933 26.957 26.942 26.928 26.943 26.926 26.933 26.938 26.929 26.919 26.944 26.96 26.977 26.97 26.973 26.738 25.458 24.739 25.761 26.098 26.065 25.902 25.698 25.475 25.371 25.353 25.34 25.363 25.39 25.411 25.444 25.458 25.435 25.378 25.305 25.259 25.203 25.183 25.178 25.174 25.138 25.158 25.239 25.281 25.354 25.436 25.501 25.58 25.638 25.7 25.753 25.765 25.791 25.814 25.801 25.775 25.76 25.776 25.808 25.827 25.908 25.972 26.013 26.03 26.029 25.95 25.854 25.722 25.615 25.569
28.937 28.971 28.576 27.596 26.426 26.797 26.993 26.925 26.925 26.92 26.89 26.809 26.703 26.61 26.481 26.416 26.342 26.278 26.216 26.205 26.161 26.161 26.117 26.11 26.082 26.088 26.054 26.023 26.031 26.04 26.052 26.06 26.084 26.133 26.156 26.183 26.146 26.118 26.047 25.935 25.861 25.777 25.744 25.743 25.732 25.775 25.752 25.759 25.736 25.727 25.7 25.703 25.692 25.726 25.713 25.769 25.765 25.786 25.807 25.865 25.865 26.004 26.036 26.215 26.319 26.543 26.665 26.843 27.004 27.107 27.237 27.328 27.461 27.502 27.592 27.602 27.66 27.684 27.708 27.729 27.775 27.746 27.769 27.751 27.768 27.764 27.693 27.652 27.571 27.472 27.385 27.268 27.16 26.997 26.903 26.739 26.652 26.552 26.46 26.389 26.344 26.292 26.263 26.25 26.221 26.222 26.231 26.228 26.222 26.237 26.247 26.269 26.262 26.309 26.304 26.262 26.205 26.145 26.097 25.993 25.921 25.816 25.738 25.66 25.619 25.554 25.507 25.483 25.438 25.452 25.413 25.36 25.328 25.296 25.222 25.224 25.188 25.156 25.14 25.139 25.11 25.046 25.043 25.025 25.009 24.996 25.035 25.108 25.205 25.306 25.431 25.481 25.48 25.458 25.506 25.247 24.056 24.749 25.715 25.718 25.735 25.696 25.647 25.597 25.557 25.49 25.487 25.464 25.467 25.445 25.481 25.471 25.492 25.53 25.566 25.628 25.694 25.761 25.824 25.85 25.848 25.871 25.904 25.898 25.868 25.802 25.757 25.703 25.651 25.582 25.535 25.491 25.45 25.396 25.36 25.321 25.277 25.276 25.248 25.247 25.245 25.24 25.221 25.218 25.229 25.221 25.218 25.219 25.224 25.237 25.255 25.291 25.288 25.291 25.249 25.196 25.156 25.14 25.141 25.131 25.117 25.085 25.076 25.101 25.12 25.118 25.086 25.084 25.076 25.066 25.081 25.056 25.08 25.09 25.101 25.11 25.226 25.245 25.136 25.162 25.251 25.337 25.689 25.189 25.382 25.298 25.31 25.188 25.221 25.807 26.565 26.069 25.275 25.21 25.135 25.151 25.301 25.451 25.505 25.547 25.586 25.434 25.304 24.705 24.441 24.966 25.359 25.464 25.521 25.563 25.649 25.653 25.66 25.605 25.542 25.473 25.43 25.321 25.255 25.162 25.063 24.962 24.882 24.781 24.733 24.711 24.702 24.699 24.698 24.71 24.736 24.757 24.79 24.811 24.815 24.841 24.844 24.861 24.867 24.861 24.847 24.83 24.811 24.813 24.806 24.822 24.825 24.84 24.867 24.875 24.873 24.894 24.903 24.895 24.907 24.917 24.918 24.937 24.975 25.027 25.065 25.08 25.123 25.154 25.187 25.217 25.246 25.281 25.309 25.344 25.356 25.423 25.446 25.569 25.573 25.746 25.778 25.914 25.974 26.181 26.208 26.345 26.427 26.429 26.417 26.43 26.42 26.411 26.415 26.436 26.434 26.445 26.485 26.479 26.499 26.527 26.612 26.65 26.704 26.76 26.843 26.893 26.942 26.964 26.963 26.921 26.896 26.875 26.892 26.931 26.932 26.908 26.938 26.96 26.985 26.995 26.985 26.996 26.936 25.535 24.375 25.671 26.08 26.096 25.945 25.687 25.472 25.379 25.375 25.38 25.39 25.407 25.446 25.469 25.478 25.459 25.411 25.361 25.298 25.264 25.242 25.219 25.194 25.174 25.189 25.249 25.318 25.401 25.482 25.523 25.565 25.627 25.693 25.737 25.781 25.827 25.862 25.872 25.869 25.849 25.86 25.883 25.895 25.942 26.007 26.012 26.011 26.01 25.928 25.808 25.681 25.606 25.528
28.915 28.951 28.594 27.772 26.475 26.619 26.929 26.895 26.889 26.892 26.877 26.816 26.695 26.607 26.467 26.418 26.35 26.288 26.233 26.217 26.156 26.138 26.111 26.086 26.074 26.051 26.028 25.995 25.987 25.996 26.004 26.045 26.053 26.146 26.148 26.201 26.197 26.136 26.078 25.957 25.898 25.809 25.758 25.759 25.748 25.781 25.778 25.77 25.751 25.708 25.693 25.696 25.688 25.701 25.699 25.747 25.767 25.787 25.81 25.867 25.91 26.014 26.126 26.299 26.396 26.574 26.699 26.852 27.042 27.137 27.236 27.337 27.439 27.461 27.559 27.56 27.613 27.6 27.627 27.621 27.667 27.626 27.652 27.617 27.596 27.584 27.504 27.424 27.374 27.267 27.149 27.04 26.937 26.821 26.741 26.615 26.493 26.414 26.341 26.28 26.26 26.2 26.201 26.197 26.18 26.199 26.22 26.226 26.218 26.225 26.266 26.275 26.307 26.311 26.299 26.266 26.238 26.185 26.105 26.002 25.921 25.803 25.734 25.648 25.594 25.547 25.521 25.495 25.472 25.473 25.466 25.41 25.369 25.343 25.285 25.259 25.206 25.182 25.171 25.15 25.134 25.092 25.061 25.031 25.035 25.013 25.036 25.121 25.21 25.34 25.442 25.501 25.501 25.485 25.5 25.433 24.27 24.215 25.563 25.724 25.751 25.715 25.652 25.617 25.571 25.512 25.48 25.475 25.472 25.459 25.488 25.481 25.487 25.56 25.583 25.658 25.725 25.805 25.867 25.912 25.903 25.913 25.938 25.953 25.889 25.822 25.751 25.72 25.653 25.598 25.542 25.513 25.483 25.42 25.386 25.337 25.303 25.295 25.261 25.254 25.268 25.257 25.241 25.232 25.232 25.23 25.242 25.242 25.244 25.233 25.266 25.292 25.31 25.291 25.265 25.217 25.184 25.146 25.156 25.136 25.134 25.085 25.088 25.088 25.114 25.127 25.098 25.083 25.09 25.076 25.093 25.079 25.099 25.106 25.113 25.114 25.243 25.273 25.183 25.192 25.344 24.695 24.543 25.004 25.329 25.347 25.289 25.248 25.199 25.467 27.579 27.213 25.276 25.205 25.19 25.128 25.219 25.405 25.528 25.542 25.586 25.484 25.34 24.819 24.243 24.628 25.19 25.419 25.474 25.511 25.594 25.616 25.619 25.593 25.534 25.495 25.435 25.342 25.277 25.166 25.08 24.98 24.879 24.811 24.765 24.731 24.712 24.706 24.722 24.728 24.766 24.774 24.83 24.857 24.872 24.889 24.892 24.88 24.877 24.881 24.856 24.835 24.823 24.832 24.826 24.831 24.833 24.852 24.878 24.877 24.914 24.909 24.903 24.911 24.93 24.942 24.945 24.962 24.993 25.053 25.078 25.118 25.137 25.179 25.251 25.293 25.304 25.361 25.35 25.458 25.48 25.923 25.936 26.044 25.99 26.001 26.052 26.249 26.249 26.339 26.395 26.44 26.464 26.503 26.5 26.543 26.551 26.562 26.572 26.574 26.563 26.539 26.524 26.536 26.547 26.562 26.624 26.696 26.765 26.828 26.867 26.907 26.927 26.93 26.928 26.927 26.919 26.9 26.897 26.932 26.939 26.927 26.955 27.009 27.025 27.029 27.029 27.038 27.038 25.873 24.426 25.366 26.047 26.077 25.952 25.721 25.5 25.394 25.39 25.405 25.403 25.408 25.463 25.492 25.492 25.488 25.446 25.368 25.306 25.287 25.28 25.284 25.258 25.239 25.256 25.287 25.341 25.426 25.489 25.545 25.568 25.606 25.68 25.758 25.805 25.867 25.881 25.904 25.898 25.89 25.915 25.935 25.955 25.978 26.013 26.013 25.992 25.953 25.892 25.808 25.676 25.57 25.507
28.904 28.895 28.389 27.676 26.406 26.545 26.906 26.871 26.874 26.859 26.855 26.836 26.689 26.581 26.466 26.389 26.318 26.267 26.227 26.213 26.169 26.12 26.107 26.084 26.069 26.026 26.028 25.982 25.986 25.975 25.987 26.012 26.035 26.111 26.139 26.175 26.178 26.153 26.112 26.009 25.924 25.84 25.784 25.757 25.739 25.753 25.776 25.751 25.765 25.735 25.726 25.704 25.708 25.707 25.725 25.733 25.772 25.782 25.838 25.907 25.992 26.088 26.247 26.365 26.514 26.639 26.798 26.906 27.038 27.145 27.241 27.34 27.414 27.447 27.487 27.507 27.526 27.51 27.523 27.505 27.5 27.471 27.456 27.436 27.399 27.365 27.319 27.218 27.15 27.063 26.956 26.873 26.784 26.669 26.561 26.452 26.38 26.321 26.265 26.21 26.183 26.185 26.18 26.183 26.189 26.21 26.228 26.231 26.252 26.259 26.295 26.288 26.306 26.302 26.307 26.269 26.237 26.171 26.101 26.019 25.936 25.825 25.747 25.657 25.616 25.555 25.536 25.522 25.522 25.527 25.505 25.469 25.428 25.418 25.32 25.312 25.227 25.207 25.177 25.159 25.143 25.111 25.076 25.05 25.063 25.054 25.066 25.17 25.233 25.367 25.444 25.469 25.499 25.521 25.511 25.503 24.516 24.093 25.38 25.729 25.762 25.736 25.659 25.625 25.576 25.519 25.503 25.492 25.476 25.464 25.481 25.503 25.504 25.569 25.582 25.676 25.743 25.825 25.903 25.966 25.966 25.964 26.004 25.998 25.923 25.865 25.761 25.715 25.642 25.592 25.56 25.545 25.51 25.492 25.422 25.38 25.344 25.313 25.284 25.273 25.277 25.267 25.25 25.231 25.244 25.242 25.26 25.252 25.258 25.251 25.272 25.291 25.31 25.301 25.269 25.235 25.212 25.165 25.158 25.143 25.142 25.107 25.088 25.085 25.099 25.115 25.106 25.093 25.096 25.077 25.083 25.09 25.093 25.108 25.127 25.135 25.21 25.295 25.23 25.203 25.292 24.952 24.442 24.922 25.301 25.474 25.3 25.294 25.261 25.313 27.263 26.761 25.422 25.301 25.231 25.172 25.28 25.439 25.534 25.5 25.474 25.506 25.402 25.024 24.318 24.442 25.077 25.361 25.395 25.453 25.517 25.572 25.599 25.59 25.562 25.51 25.436 25.363 25.287 25.166 25.096 24.98 24.889 24.839 24.789 24.765 24.735 24.723 24.735 24.767 24.804 24.829 24.874 24.898 24.923 24.933 24.91 24.907 24.897 24.902 24.909 24.877 24.864 24.864 24.853 24.846 24.859 24.889 24.921 24.92 24.936 24.927 24.923 24.932 24.945 24.954 24.968 24.979 25.019 25.061 25.097 25.149 25.185 25.242 25.271 25.308 25.355 25.447 25.844 26.449 25.806 25.974 25.941 26.097 26.153 26.297 26.334 26.353 26.411 26.483 26.518 26.56 26.586 26.639 26.665 26.702 26.72 26.7 26.693 26.68 26.648 26.65 26.588 26.607 26.621 26.63 26.656 26.692 26.755 26.831 26.878 26.931 26.974 26.97 26.957 26.965 26.952 26.925 26.923 26.943 26.968 26.963 26.987 27.03 27.057 27.068 27.067 27.054 27.104 26.418 24.371 25.125 25.996 26.084 26.006 25.773 25.508 25.408 25.394 25.412 25.425 25.422 25.45 25.479 25.505 25.494 25.442 25.389 25.338 25.299 25.323 25.326 25.328 25.316 25.322 25.341 25.392 25.468 25.498 25.537 25.556 25.592 25.686 25.754 25.806 25.86 25.886 25.889 25.875 25.889 25.899 25.927 25.956 25.968 26.002 25.994 25.951 25.909 25.866 25.783 25.662 25.587 25.524
28.918 29.033 28.535 27.954 26.578 26.716 26.9 26.851 26.85 26.833 26.816 26.8 26.684 26.574 26.468 26.405 26.353 26.284 26.259 26.222 26.178 26.134 26.117 26.085 26.063 26.023 26.009 25.986 25.981 25.951 25.977 26.002 26.02 26.075 26.146 26.165 26.193 26.165 26.127 26.063 25.946 25.877 25.79 25.759 25.754 25.763 25.806 25.804 25.802 25.762 25.743 25.72 25.726 25.722 25.722 25.701 25.773 25.787 25.893 25.94 26.076 26.18 26.328 26.456 26.618 26.711 26.833 26.938 27.067 27.153 27.252 27.301 27.332 27.382 27.39 27.402 27.386 27.388 27.359 27.32 27.326 27.302 27.286 27.242 27.165 27.172 27.064 26.995 26.912 26.879 26.788 26.673 26.59 26.546 26.457 26.389 26.313 26.233 26.213 26.178 26.158 26.165 26.16 26.216 26.22 26.257 26.273 26.273 26.285 26.279 26.306 26.29 26.295 26.285 26.284 26.254 26.212 26.169 26.099 26.035 25.926 25.839 25.76 25.672 25.618 25.576 25.553 25.536 25.556 25.575 25.57 25.523 25.499 25.472 25.385 25.331 25.277 25.243 25.222 25.181 25.14 25.13 25.117 25.095 25.101 25.096 25.09 25.164 25.255 25.35 25.447 25.475 25.478 25.536 25.523 25.526 24.842 24.086 25.179 25.737 25.764 25.759 25.698 25.661 25.615 25.522 25.498 25.5 25.487 25.482 25.483 25.495 25.497 25.558 25.6 25.683 25.751 25.853 25.94 26.012 26.018 26.023 26.044 26.027 25.967 25.86 25.789 25.725 25.669 25.621 25.609 25.596 25.579 25.559 25.483 25.425 25.387 25.344 25.319 25.293 25.296 25.296 25.287 25.238 25.259 25.251 25.255 25.273 25.269 25.264 25.281 25.287 25.32 25.314 25.277 25.264 25.218 25.187 25.173 25.146 25.144 25.117 25.09 25.086 25.099 25.123 25.127 25.105 25.106 25.097 25.099 25.114 25.098 25.108 25.133 25.156 25.202 25.297 25.26 25.215 25.275 25.13 24.557 24.628 25.343 25.569 25.354 25.275 25.299 25.404 26.663 25.565 25.356 25.33 25.194 25.191 25.317 25.524 25.709 25.579 25.414 25.419 25.423 25.236 24.635 24.393 24.944 25.313 25.353 25.438 25.485 25.543 25.579 25.58 25.541 25.511 25.42 25.353 25.267 25.168 25.073 25.025 24.912 24.858 24.809 24.782 24.767 24.766 24.779 24.817 24.837 24.866 24.901 24.93 24.965 24.967 24.963 24.955 24.949 24.95 24.944 24.92 24.903 24.894 24.885 24.894 24.902 24.906 24.935 24.929 24.927 24.922 24.916 24.929 24.939 24.961 24.985 25.02 25.045 25.101 25.135 25.198 25.249 25.518 25.521 25.605 25.661 25.734 26.064 26.269 26.14 26.237 26.315 26.349 26.368 26.39 26.433 26.48 26.559 26.626 26.697 26.745 26.742 26.795 26.815 26.801 26.823 26.811 26.804 26.797 26.758 26.743 26.693 26.674 26.648 26.614 26.671 26.703 26.766 26.855 26.892 26.952 26.993 27.015 26.982 27.011 27.01 26.974 26.981 26.993 26.997 26.977 26.99 27.033 27.075 27.1 27.097 27.094 27.101 26.764 24.745 24.78 25.699 26.092 26.011 25.793 25.563 25.419 25.385 25.388 25.389 25.404 25.445 25.467 25.486 25.467 25.417 25.352 25.302 25.297 25.37 25.394 25.402 25.409 25.414 25.438 25.453 25.494 25.533 25.54 25.559 25.613 25.707 25.775 25.796 25.858 25.875 25.862 25.86 25.844 25.871 25.892 25.909 25.911 25.936 25.968 25.944 25.889 25.827 25.75 25.679 25.594 25.522
28.907 29.05 28.574 28.077 27.225 26.945 26.959 26.823 26.822 26.824 26.799 26.775 26.691 26.563 26.488 26.415 26.352 26.276 26.252 26.218 26.198 26.138 26.101 26.086 26.053 26.024 26.015 25.998 25.978 25.96 25.973 26 26.018 26.058 26.14 26.158 26.202 26.196 26.148 26.113 25.987 25.94 25.825 25.78 25.754 25.756 25.799 25.774 25.775 25.737 25.738 25.728 25.706 25.722 25.74 25.757 25.817 25.858 25.958 26.026 26.19 26.277 26.414 26.535 26.677 26.77 26.874 26.985 27.048 27.137 27.175 27.243 27.225 27.276 27.265 27.275 27.235 27.186 27.134 27.1 27.074 27.068 26.979 27.025 26.977 26.916 26.888 26.791 26.732 26.693 26.573 26.53 26.481 26.412 26.354 26.307 26.236 26.168 26.179 26.129 26.113 26.152 26.149 26.225 26.235 26.272 26.308 26.306 26.33 26.323 26.323 26.312 26.3 26.289 26.252 26.204 26.173 26.143 26.065 25.994 25.899 25.822 25.743 25.691 25.633 25.591 25.585 25.585 25.6 25.596 25.614 25.569 25.532 25.448 25.408 25.35 25.335 25.294 25.274 25.223 25.196 25.171 25.151 25.118 25.093 25.118 25.14 25.204 25.246 25.366 25.461 25.509 25.501 25.543 25.511 25.523 25.106 24.034 24.794 25.746 25.756 25.76 25.715 25.685 25.621 25.53 25.504 25.511 25.497 25.495 25.506 25.516 25.518 25.547 25.6 25.667 25.764 25.853 25.949 26.036 26.067 26.095 26.092 26.071 26.008 25.897 25.823 25.751 25.7 25.674 25.673 25.673 25.677 25.656 25.555 25.482 25.427 25.389 25.342 25.312 25.315 25.303 25.314 25.261 25.266 25.261 25.276 25.277 25.278 25.281 25.271 25.279 25.314 25.331 25.305 25.274 25.233 25.207 25.17 25.157 25.144 25.118 25.104 25.093 25.105 25.11 25.126 25.082 25.113 25.1 25.096 25.126 25.113 25.123 25.146 25.17 25.195 25.29 25.298 25.218 25.271 25.203 24.619 24.563 25.201 25.513 25.385 25.338 25.365 25.318 25.341 25.291 25.279 25.249 25.226 25.26 25.319 25.566 25.827 25.78 25.554 25.414 25.354 25.191 24.46 24.173 24.746 25.193 25.319 25.394 25.444 25.538 25.581 25.6 25.565 25.513 25.417 25.356 25.276 25.19 25.101 25.011 24.928 24.886 24.814 24.795 24.805 24.806 24.821 24.87 24.893 24.928 24.962 24.989 25.006 25.011 25.021 25.011 25.01 25.004 24.985 24.977 24.957 24.946 24.942 24.954 24.929 24.912 24.926 24.921 24.922 24.924 24.92 24.936 24.94 24.947 24.949 24.991 25.044 25.132 25.534 25.364 25.502 25.533 25.619 25.602 25.73 26.003 26.115 26.181 26.279 26.33 26.389 26.415 26.462 26.547 26.6 26.62 26.683 26.781 26.819 26.85 26.868 26.871 26.923 26.895 26.921 26.941 26.928 26.889 26.826 26.763 26.714 26.67 26.653 26.673 26.699 26.735 26.783 26.837 26.896 26.966 27.014 27.054 27.044 27.056 27.053 27.03 27.039 27.031 27.025 27.012 27.024 27.041 27.08 27.118 27.133 27.132 27.13 26.967 25.737 24.348 25.411 26.025 26.035 25.818 25.543 25.411 25.369 25.342 25.34 25.356 25.408 25.447 25.449 25.433 25.421 25.346 25.299 25.306 25.371 25.409 25.441 25.463 25.479 25.495 25.499 25.548 25.544 25.547 25.572 25.612 25.708 25.784 25.821 25.85 25.875 25.865 25.858 25.812 25.811 25.832 25.873 25.861 25.858 25.91 25.886 25.859 25.819 25.741 25.64 25.594 25.567
28.895 29.028 28.781 28.038 27.504 27.094 27.091 26.831 26.811 26.794 26.785 26.742 26.671 26.53 26.481 26.401 26.352 26.287 26.251 26.239 26.204 26.145 26.111 26.074 26.054 26.023 26.008 25.993 25.959 25.95 25.956 25.981 26.003 26.049 26.153 26.167 26.235 26.239 26.185 26.163 26.045 25.958 25.865 25.8 25.76 25.745 25.766 25.768 25.774 25.78 25.763 25.76 25.748 25.758 25.78 25.817 25.867 25.913 26.003 26.137 26.252 26.423 26.532 26.657 26.722 26.834 26.916 27.012 27.084 27.124 27.134 27.193 27.15 27.147 27.133 27.102 27.064 27.037 26.953 26.913 26.89 26.843 26.791 26.796 26.808 26.741 26.674 26.621 26.552 26.502 26.438 26.369 26.312 26.315 26.245 26.181 26.148 26.122 26.075 26.075 26.074 26.14 26.143 26.211 26.258 26.304 26.324 26.346 26.372 26.359 26.356 26.357 26.324 26.282 26.234 26.167 26.126 26.075 26.011 25.971 25.892 25.842 25.755 25.716 25.653 25.621 25.6 25.609 25.628 25.642 25.647 25.607 25.565 25.498 25.443 25.422 25.364 25.324 25.3 25.265 25.206 25.175 25.12 25.083 25.084 25.129 25.127 25.199 25.278 25.357 25.46 25.532 25.582 25.559 25.502 25.5 25.357 24.167 24.524 25.71 25.749 25.759 25.726 25.69 25.649 25.573 25.544 25.543 25.522 25.51 25.504 25.518 25.522 25.54 25.623 25.666 25.768 25.865 25.978 26.058 26.097 26.109 26.131 26.104 26.041 25.923 25.853 25.801 25.761 25.749 25.744 25.734 25.73 25.704 25.625 25.554 25.484 25.434 25.367 25.334 25.344 25.334 25.321 25.278 25.283 25.308 25.29 25.283 25.284 25.27 25.282 25.286 25.307 25.328 25.306 25.287 25.257 25.228 25.18 25.169 25.147 25.15 25.099 25.089 25.118 25.12 25.119 25.096 25.095 25.096 25.108 25.126 25.121 25.133 25.139 25.178 25.188 25.292 25.328 25.246 25.267 25.273 24.777 24.803 25.09 25.478 25.419 25.398 25.324 25.277 25.218 25.247 25.284 25.241 25.251 25.337 25.341 25.526 25.756 25.838 25.663 25.491 25.434 25.367 24.689 24.079 24.558 25.03 25.297 25.347 25.417 25.531 25.591 25.604 25.554 25.489 25.42 25.332 25.248 25.19 25.125 25.055 24.967 24.911 24.866 24.862 24.844 24.847 24.859 24.909 24.927 24.959 24.999 25.032 25.048 25.051 25.051 25.068 25.041 25.046 25.048 25.03 25.016 24.994 24.969 24.961 24.943 24.921 24.914 24.916 24.936 24.946 24.936 24.942 24.915 24.943 24.966 25.06 25.326 26.329 26.816 25.622 25.445 25.578 25.752 25.982 26.13 26.199 26.248 26.304 26.364 26.449 26.51 26.564 26.626 26.721 26.747 26.809 26.827 26.907 26.945 26.956 26.982 27.004 27.011 27.007 26.991 26.999 26.956 26.924 26.865 26.839 26.813 26.75 26.715 26.72 26.709 26.752 26.815 26.898 26.955 27.021 27.065 27.103 27.128 27.106 27.093 27.087 27.062 27.055 27.06 27.064 27.064 27.066 27.086 27.128 27.153 27.148 27.135 27.113 26.066 24.293 25.062 26.032 26.009 25.828 25.567 25.407 25.373 25.324 25.322 25.307 25.335 25.399 25.426 25.414 25.384 25.324 25.282 25.269 25.347 25.401 25.437 25.489 25.5 25.503 25.519 25.549 25.549 25.526 25.534 25.587 25.672 25.754 25.796 25.826 25.863 25.853 25.844 25.799 25.792 25.804 25.81 25.795 25.781 25.844 25.863 25.822 25.786 25.759 25.678 25.611 25.591
28.873 29.022 28.943 27.997 27.571 27.123 27.116 26.831 26.817 26.804 26.782 26.739 26.681 26.553 26.491 26.4 26.363 26.309 26.263 26.245 26.178 26.141 26.078 26.059 26.031 26.007 25.978 25.977 25.954 25.959 25.956 25.982 26.009 26.036 26.114 26.169 26.216 26.24 26.204 26.18 26.088 26.004 25.914 25.825 25.786 25.752 25.754 25.772 25.778 25.793 25.789 25.785 25.778 25.805 25.813 25.831 25.9 25.993 26.104 26.257 26.354 26.509 26.617 26.74 26.81 26.91 26.973 27.032 27.083 27.099 27.074 27.079 27.048 27.025 26.99 26.971 26.878 26.835 26.751 26.711 26.659 26.599 26.592 26.564 26.556 26.544 26.431 26.418 26.352 26.336 26.274 26.198 26.171 26.153 26.132 26.112 26.1 26.077 26.044 26.049 26.048 26.09 26.138 26.195 26.265 26.307 26.338 26.384 26.39 26.4 26.38 26.376 26.323 26.28 26.209 26.153 26.075 26.004 25.934 25.898 25.86 25.83 25.779 25.731 25.677 25.642 25.634 25.656 25.659 25.656 25.656 25.626 25.6 25.556 25.468 25.432 25.389 25.365 25.317 25.273 25.237 25.199 25.131 25.113 25.132 25.168 25.163 25.208 25.281 25.353 25.471 25.543 25.607 25.587 25.516 25.475 25.405 24.341 24.296 25.616 25.731 25.764 25.729 25.703 25.68 25.6 25.573 25.577 25.54 25.523 25.519 25.519 25.539 25.54 25.613 25.654 25.773 25.863 25.981 26.056 26.131 26.152 26.167 26.125 26.08 25.983 25.895 25.846 25.831 25.797 25.799 25.784 25.783 25.746 25.709 25.63 25.561 25.486 25.409 25.335 25.347 25.336 25.347 25.324 25.284 25.291 25.283 25.274 25.28 25.266 25.278 25.282 25.303 25.319 25.312 25.299 25.257 25.233 25.183 25.165 25.146 25.158 25.11 25.115 25.123 25.127 25.103 25.091 25.094 25.109 25.126 25.13 25.127 25.136 25.145 25.18 25.197 25.276 25.34 25.274 25.275 25.354 25.055 24.62 25.346 25.403 25.489 25.451 25.332 25.233 25.213 25.287 25.289 25.307 25.321 25.367 25.375 25.504 25.663 25.815 25.701 25.534 25.469 25.699 25.068 24.372 24.481 25.02 25.286 25.358 25.421 25.5 25.548 25.576 25.535 25.469 25.428 25.36 25.264 25.2 25.126 25.072 24.992 24.932 24.902 24.879 24.866 24.887 24.893 24.928 24.956 24.976 25.024 25.071 25.084 25.084 25.081 25.106 25.085 25.098 25.073 25.046 25.026 25.006 24.98 24.969 24.963 24.959 24.953 24.955 24.949 24.989 25.049 25.197 25.067 25.089 24.994 25.096 26.141 26.83 26.521 25.761 25.838 25.938 26.037 26.141 26.215 26.298 26.368 26.457 26.534 26.626 26.669 26.733 26.802 26.847 26.882 26.957 26.959 27.025 27.064 27.047 27.061 27.07 27.075 27.063 27.024 27.031 27.024 26.995 26.936 26.888 26.834 26.781 26.787 26.797 26.78 26.831 26.88 26.963 27.012 27.079 27.126 27.161 27.171 27.154 27.147 27.127 27.111 27.106 27.099 27.103 27.104 27.104 27.114 27.143 27.184 27.189 27.155 27.115 26.721 24.491 24.841 25.949 26.004 25.913 25.642 25.453 25.385 25.343 25.311 25.272 25.268 25.309 25.361 25.362 25.376 25.325 25.271 25.262 25.315 25.388 25.415 25.465 25.488 25.511 25.519 25.532 25.54 25.487 25.496 25.533 25.619 25.707 25.758 25.793 25.833 25.818 25.811 25.797 25.811 25.784 25.747 25.726 25.742 25.803 25.825 25.826 25.794 25.756 25.697 25.646 25.628
28.886 29.016 28.997 28.095 27.423 27.172 27.071 26.851 26.813 26.785 26.77 26.724 26.666 26.57 26.488 26.393 26.339 26.295 26.235 26.202 26.153 26.126 26.084 26.043 26.014 25.99 25.968 25.963 25.945 25.956 25.951 25.979 26 26.008 26.069 26.135 26.191 26.248 26.238 26.229 26.161 26.033 25.971 25.859 25.833 25.777 25.747 25.758 25.761 25.814 25.819 25.834 25.814 25.815 25.841 25.885 25.955 26.089 26.205 26.343 26.435 26.59 26.708 26.786 26.888 26.956 27.027 27.024 27.07 27.071 27.028 26.997 26.955 26.891 26.831 26.762 26.703 26.599 26.543 26.489 26.433 26.392 26.378 26.332 26.311 26.288 26.245 26.202 26.172 26.152 26.113 26.073 26.066 26.064 26.058 26.013 26.01 26.021 26.001 26.006 26.009 26.03 26.094 26.142 26.243 26.285 26.35 26.392 26.411 26.435 26.428 26.412 26.356 26.281 26.2 26.081 26.011 25.949 25.886 25.854 25.837 25.8 25.755 25.733 25.696 25.663 25.649 25.669 25.68 25.68 25.666 25.637 25.612 25.553 25.483 25.421 25.413 25.372 25.325 25.3 25.268 25.225 25.175 25.143 25.156 25.188 25.209 25.213 25.29 25.338 25.474 25.55 25.606 25.586 25.519 25.469 25.424 24.634 24.196 25.287 25.699 25.741 25.746 25.691 25.69 25.649 25.594 25.594 25.565 25.536 25.537 25.529 25.544 25.542 25.607 25.659 25.782 25.865 25.983 26.063 26.154 26.179 26.195 26.19 26.116 26.055 25.941 25.883 25.864 25.85 25.843 25.802 25.8 25.769 25.749 25.684 25.618 25.519 25.45 25.386 25.383 25.359 25.357 25.345 25.301 25.302 25.291 25.283 25.287 25.277 25.283 25.291 25.309 25.323 25.328 25.304 25.27 25.252 25.186 25.174 25.166 25.167 25.122 25.091 25.108 25.134 25.136 25.104 25.077 25.114 25.133 25.149 25.13 25.145 25.166 25.191 25.208 25.256 25.356 25.32 25.292 25.319 25.114 25.288 25.749 25.401 25.556 25.493 25.367 25.324 25.304 25.383 25.528 25.45 25.361 25.516 25.442 25.582 25.669 25.752 25.737 25.616 25.585 25.765 25.321 25.734 24.801 25.06 25.34 25.389 25.43 25.461 25.529 25.548 25.52 25.487 25.461 25.379 25.281 25.211 25.133 25.058 24.988 24.935 24.902 24.885 24.887 24.892 24.921 24.958 24.999 25.032 25.08 25.113 25.117 25.136 25.118 25.117 25.123 25.101 25.068 25.038 25.029 25.007 24.991 24.984 25.004 24.991 25.012 24.99 25.05 25.133 25.295 25.621 25.129 24.867 24.995 25.32 25.752 25.909 25.887 25.867 25.991 26.088 26.178 26.281 26.396 26.45 26.515 26.609 26.721 26.746 26.825 26.881 26.936 26.989 27.032 27.074 27.079 27.081 27.097 27.083 27.092 27.126 27.128 27.139 27.121 27.094 27.06 27.041 26.996 26.943 26.904 26.855 26.864 26.872 26.893 26.95 26.99 27.043 27.096 27.138 27.161 27.201 27.225 27.197 27.191 27.168 27.146 27.142 27.148 27.145 27.14 27.149 27.158 27.169 27.208 27.197 27.178 27.15 26.909 24.945 24.629 25.621 26.05 26.027 25.772 25.572 25.433 25.38 25.329 25.299 25.252 25.264 25.312 25.341 25.329 25.294 25.266 25.25 25.272 25.334 25.383 25.432 25.464 25.461 25.483 25.507 25.503 25.463 25.485 25.47 25.533 25.611 25.659 25.702 25.756 25.788 25.785 25.791 25.755 25.733 25.707 25.653 25.683 25.736 25.787 25.791 25.788 25.735 25.688 25.663 25.635
28.903 28.918 28.965 28.295 27.24 27.01 27.017 26.9 26.786 26.761 26.744 26.718 26.667 26.573 26.46 26.399 26.313 26.266 26.203 26.176 26.147 26.119 26.054 26.032 25.979 25.949 25.925 25.902 25.906 25.899 25.92 25.947 25.954 25.993 26.047 26.116 26.173 26.241 26.258 26.241 26.21 26.08 26.037 25.899 25.868 25.781 25.762 25.764 25.781 25.826 25.836 25.846 25.866 25.855 25.876 25.916 25.982 26.123 26.25 26.394 26.549 26.648 26.785 26.864 26.937 26.982 27.037 27.039 27.028 27.008 26.977 26.924 26.85 26.756 26.668 26.597 26.491 26.414 26.325 26.259 26.225 26.18 26.192 26.187 26.136 26.095 26.11 26.066 26.045 26.014 26 25.969 25.962 25.958 25.972 25.939 25.953 25.961 25.959 25.96 25.992 25.983 26.055 26.132 26.264 26.315 26.379 26.422 26.447 26.462 26.489 26.417 26.362 26.251 26.172 26.042 25.969 25.888 25.836 25.817 25.802 25.817 25.793 25.771 25.728 25.703 25.676 25.687 25.7 25.695 25.654 25.632 25.588 25.547 25.479 25.443 25.426 25.383 25.36 25.327 25.264 25.235 25.23 25.18 25.171 25.211 25.233 25.243 25.319 25.366 25.463 25.536 25.609 25.581 25.542 25.475 25.443 24.974 24.128 24.941 25.688 25.743 25.759 25.693 25.708 25.676 25.62 25.605 25.583 25.548 25.545 25.537 25.556 25.565 25.614 25.68 25.795 25.89 25.994 26.07 26.178 26.198 26.221 26.23 26.158 26.089 25.968 25.917 25.884 25.871 25.845 25.809 25.783 25.782 25.748 25.677 25.616 25.54 25.473 25.407 25.392 25.384 25.374 25.371 25.331 25.324 25.312 25.295 25.29 25.281 25.274 25.3 25.291 25.317 25.325 25.309 25.275 25.235 25.212 25.182 25.178 25.182 25.14 25.097 25.099 25.124 25.146 25.132 25.085 25.113 25.134 25.148 25.15 25.165 25.173 25.201 25.223 25.261 25.354 25.343 25.284 25.341 25.21 24.79 25.253 25.384 25.488 25.485 25.415 25.385 25.269 25.298 25.361 25.363 25.356 25.395 25.481 25.601 25.688 25.836 25.943 25.712 25.607 25.551 25.671 27.421 25.708 24.959 25.374 25.437 25.425 25.461 25.513 25.528 25.522 25.498 25.446 25.373 25.305 25.188 25.116 25.061 24.999 24.948 24.914 24.891 24.896 24.911 24.953 24.977 25.028 25.055 25.092 25.119 25.134 25.147 25.139 25.122 25.1 25.097 25.075 25.04 25.033 25.032 25.012 24.973 25.119 25.113 25.275 25.159 24.992 25.552 25.1 25.32 25.374 25.274 25.396 25.591 25.682 25.8 25.887 25.994 26.1 26.206 26.351 26.46 26.596 26.644 26.714 26.754 26.82 26.876 26.93 27.005 27.059 27.101 27.085 27.102 27.097 27.115 27.146 27.165 27.187 27.204 27.193 27.185 27.172 27.164 27.136 27.11 27.059 27.018 26.982 26.961 26.942 26.961 26.977 27.03 27.076 27.121 27.168 27.196 27.225 27.265 27.274 27.258 27.243 27.234 27.209 27.192 27.199 27.188 27.157 27.17 27.194 27.207 27.228 27.223 27.206 27.189 27.073 26.001 24.451 25.606 25.989 25.979 25.868 25.694 25.504 25.415 25.379 25.321 25.269 25.251 25.28 25.284 25.318 25.309 25.265 25.225 25.258 25.309 25.353 25.388 25.401 25.402 25.41 25.455 25.449 25.425 25.438 25.407 25.418 25.481 25.536 25.565 25.605 25.664 25.699 25.732 25.728 25.691 25.646 25.63 25.628 25.693 25.764 25.787 25.776 25.735 25.707 25.653 25.632
28.904 28.893 29 28.666 27.169 26.798 27.009 26.908 26.766 26.746 26.744 26.74 26.65 26.567 26.43 26.397 26.313 26.254 26.196 26.142 26.114 26.062 26.006 25.967 25.926 25.901 25.87 25.87 25.876 25.856 25.92 25.929 25.939 25.993 26.031 26.102 26.155 26.184 26.222 26.242 26.209 26.113 26.069 25.937 25.882 25.82 25.795 25.812 25.835 25.839 25.858 25.875 25.899 25.898 25.925 25.977 26.06 26.194 26.339 26.463 26.592 26.701 26.83 26.894 26.948 27.012 27.067 27.051 27.027 26.98 26.901 26.835 26.72 26.626 26.512 26.427 26.294 26.211 26.151 26.122 26.073 26.012 25.99 26.002 25.966 25.931 25.945 25.932 25.915 25.922 25.894 25.869 25.87 25.887 25.91 25.895 25.891 25.917 25.932 25.925 25.946 25.925 26.011 26.082 26.207 26.276 26.369 26.419 26.46 26.46 26.468 26.412 26.345 26.265 26.159 26.056 25.96 25.865 25.82 25.803 25.799 25.812 25.808 25.791 25.754 25.703 25.71 25.704 25.688 25.662 25.642 25.625 25.566 25.514 25.463 25.448 25.44 25.395 25.361 25.335 25.302 25.269 25.27 25.223 25.186 25.22 25.253 25.287 25.315 25.351 25.449 25.538 25.601 25.613 25.564 25.467 25.471 25.148 24.186 24.812 25.653 25.717 25.746 25.708 25.698 25.686 25.631 25.623 25.591 25.564 25.576 25.539 25.561 25.578 25.608 25.7 25.777 25.904 25.994 26.094 26.188 26.218 26.241 26.263 26.192 26.127 26.039 25.934 25.87 25.859 25.814 25.776 25.763 25.743 25.71 25.671 25.612 25.559 25.498 25.436 25.401 25.408 25.377 25.383 25.336 25.338 25.317 25.299 25.297 25.302 25.307 25.29 25.288 25.299 25.315 25.33 25.284 25.249 25.216 25.197 25.189 25.186 25.142 25.102 25.095 25.119 25.144 25.142 25.098 25.111 25.138 25.153 25.154 25.17 25.17 25.209 25.235 25.249 25.339 25.386 25.322 25.333 25.304 25.179 26.791 25.932 25.432 25.473 25.455 25.361 25.249 25.237 25.268 25.32 25.445 25.51 25.59 25.71 25.748 25.963 25.944 25.79 25.683 25.698 25.571 25.737 25.783 24.802 25.255 25.458 25.427 25.424 25.494 25.536 25.518 25.483 25.423 25.333 25.251 25.182 25.131 25.058 25 24.978 24.949 24.945 24.923 24.94 24.972 24.988 25.032 25.07 25.091 25.108 25.134 25.153 25.15 25.134 25.121 25.121 25.096 25.061 25.052 25.111 25.164 25.151 25.133 25.072 25.139 24.954 24.841 25.038 25.06 25.312 25.496 25.53 25.642 25.677 25.779 25.889 26.028 26.166 26.264 26.365 26.501 26.628 26.742 26.815 26.856 26.93 26.981 27.023 27.054 27.08 27.111 27.135 27.117 27.137 27.166 27.191 27.207 27.219 27.232 27.263 27.259 27.238 27.228 27.229 27.213 27.178 27.134 27.098 27.069 27.061 27.029 27.051 27.088 27.108 27.158 27.222 27.258 27.267 27.299 27.329 27.335 27.332 27.306 27.296 27.277 27.245 27.246 27.255 27.224 27.212 27.239 27.239 27.249 27.251 27.234 27.201 27.185 26.28 24.658 24.99 26.004 26.048 25.97 25.819 25.625 25.52 25.458 25.351 25.323 25.309 25.33 25.308 25.311 25.303 25.26 25.208 25.237 25.266 25.313 25.321 25.354 25.333 25.343 25.357 25.383 25.381 25.374 25.366 25.343 25.383 25.36 25.299 25.393 25.545 25.596 25.628 25.633 25.619 25.581 25.565 25.584 25.641 25.746 25.756 25.75 25.746 25.708 25.639 25.636
