ncols 433
nrows 32
xllcorner    502058
yllcorner    481096
cellsize     2
NODATA_value -9999
26.164 26.233 26.315 26.356 26.382 26.384 26.354 26.313 26.195 26.1 25.989 25.852 25.716 25.591 25.49 25.447 25.376 25.329 25.287 25.284 25.261 25.25 25.292 25.313 25.351 25.349 25.342 25.329 25.338 25.349 25.364 25.371 25.417 25.423 25.472 25.404 25.301 25.312 25.376 25.406 25.415 25.385 25.355 25.324 25.269 25.195 25.162 25.115 25.06 24.975 24.918 24.848 24.8 24.775 24.723 24.704 24.713 24.713 24.699 24.704 24.685 24.698 24.719 24.725 24.715 24.688 24.691 24.661 24.614 24.604 24.593 24.539 24.518 24.525 24.468 24.386 24.369 24.5 24.52 24.538 24.52 24.518 24.571 24.574 24.584 24.62 24.625 24.622 24.592 24.6 24.556 24.574 24.581 24.634 24.648 24.668 24.726 24.763 24.84 24.865 24.942 25.014 24.965 23.726 24.465 25.248 25.353 25.283 25.234 25.19 25.128 25.11 25.109 25.076 25.056 25.023 25.016 24.93 24.916 24.855 24.843 24.769 24.738 24.669 24.627 24.609 24.582 24.566 24.545 24.533 24.534 24.526 24.532 24.53 24.54 24.563 24.525 24.538 24.541 24.532 24.53 24.537 24.572 24.564 24.572 24.557 24.565 24.574 24.563 24.545 24.56 24.573 24.604 24.626 24.621 24.611 24.601 24.591 24.598 24.61 24.601 24.587 24.579 24.605 24.62 24.642 24.59 24.573 24.59 24.552 24.531 24.502 24.522 24.493 24.518 24.504 24.493 24.487 24.46 24.482 24.491 24.513 24.527 24.598 24.604 24.695 24.735 24.814 24.86 24.89 24.994 25.022 25.049 25.121 25.157 25.201 25.175 25.218 25.201 25.227 25.236 25.205 25.19 25.151 25.151 25.159 25.179 25.169 25.26 25.253 25.347 25.381 25.392 25.398 25.402 25.461 25.481 25.471 25.49 25.495 25.474 25.482 25.47 25.447 25.477 25.514 25.549 25.579 25.627 25.641 25.662 25.66 25.629 25.649 25.657 25.675 25.686 25.711 25.732 25.791 25.81 25.825 25.878 25.914 25.983 26.017 26.001 26.128 26.307 26.43 26.52 26.555 26.562 26.58 26.638 26.704 26.701 26.745 26.769 26.858 26.883 26.903 26.943 27.043 27.019 27.082 27.088 27.117 27.121 27.163 27.151 27.162 27.151 27.154 27.137 27.161 27.14 27.115 27.073 27.087 27.068 27.117 27.11 27.161 27.149 27.228 27.238 27.273 27.283 27.337 27.341 27.371 27.415 27.406 27.446 27.466 27.444 27.453 27.399 27.383 27.338 27.252 27.256 27.154 27.122 27.051 26.983 26.915 26.825 26.721 26.657 26.595 26.572 26.468 26.437 26.349 26.298 26.17 26.171 26.053 25.996 25.906 25.809 25.73 25.679 25.689 25.681 25.652 25.57 25.551 25.536 25.612 25.655 25.577 25.541 25.478 25.457 25.439 25.377 25.445 25.431 25.502 25.513 25.594 25.636 25.659 25.723 25.783 25.849 25.944 25.999 26.097 26.127 26.133 26.218 26.161 26.166 26.102 26.086 26.077 26.088 26.175 26.198 26.11 26.125 26.156 26.196 26.153 26.214 26.188 26.266 26.247 26.234 26.258 26.271 26.322 26.344 26.332 26.338 26.325 26.362 26.345 26.306 26.156 26.15 26.052 25.989 25.983 25.854 25.902 25.768 25.774 25.677 25.724 25.712 25.71 25.754 25.787 25.804 25.844 25.901 25.964 25.996 26.032 26.074 26.088 26.071 26.055 25.986 25.932 25.846 25.758 25.623 25.482 25.408 25.202 25.146 24.973 24.954 24.79 24.739 24.652 24.628 24.548 24.689 24.467 24.377 24.342 24.22 24.247 24.176 24.202 24.093
26.18 26.256 26.323 26.363 26.38 26.375 26.332 26.284 26.2 26.121 25.995 25.863 25.711 25.589 25.509 25.413 25.357 25.327 25.301 25.289 25.27 25.299 25.337 25.366 25.357 25.354 25.34 25.335 25.33 25.343 25.365 25.367 25.408 25.428 25.448 25.36 25.319 25.336 25.41 25.392 25.405 25.406 25.36 25.333 25.294 25.208 25.15 25.103 25.034 24.958 24.885 24.812 24.752 24.709 24.71 24.679 24.676 24.67 24.674 24.671 24.677 24.684 24.689 24.7 24.676 24.657 24.659 24.621 24.601 24.568 24.545 24.522 24.529 24.507 24.381 24.326 24.34 24.373 24.477 24.493 24.537 24.51 24.565 24.566 24.579 24.591 24.598 24.602 24.593 24.604 24.563 24.53 24.548 24.601 24.66 24.66 24.716 24.735 24.782 24.846 24.926 24.957 25.266 24.682 24.171 25.089 25.391 25.301 25.249 25.23 25.165 25.129 25.083 25.124 25.059 25.019 24.96 24.929 24.936 24.887 24.841 24.776 24.758 24.694 24.678 24.616 24.608 24.607 24.566 24.576 24.541 24.588 24.552 24.566 24.541 24.587 24.541 24.566 24.551 24.55 24.552 24.56 24.591 24.582 24.588 24.557 24.557 24.534 24.53 24.542 24.564 24.562 24.594 24.58 24.607 24.587 24.621 24.583 24.606 24.586 24.632 24.581 24.602 24.591 24.632 24.612 24.591 24.548 24.59 24.539 24.511 24.502 24.493 24.494 24.495 24.483 24.471 24.466 24.437 24.467 24.467 24.5 24.501 24.574 24.596 24.637 24.716 24.794 24.84 24.887 24.965 25.014 25.02 25.112 25.115 25.184 25.169 25.189 25.198 25.218 25.249 25.24 25.225 25.184 25.172 25.168 25.186 25.191 25.224 25.269 25.318 25.371 25.352 25.428 25.434 25.493 25.505 25.513 25.512 25.499 25.5 25.504 25.52 25.497 25.511 25.549 25.563 25.606 25.654 25.666 25.679 25.714 25.652 25.692 25.676 25.7 25.713 25.753 25.769 25.814 25.826 25.826 25.867 25.925 25.97 26.026 26.018 26.025 26.315 26.461 26.579 26.581 26.588 26.631 26.66 26.724 26.733 26.807 26.78 26.891 26.891 26.946 26.979 27.072 27.067 27.129 27.12 27.142 27.149 27.183 27.153 27.205 27.155 27.172 27.13 27.149 27.127 27.157 27.084 27.129 27.112 27.154 27.128 27.177 27.187 27.244 27.271 27.309 27.309 27.328 27.344 27.382 27.413 27.428 27.464 27.438 27.428 27.412 27.398 27.35 27.364 27.275 27.263 27.189 27.105 27.069 26.969 26.913 26.809 26.738 26.693 26.626 26.608 26.512 26.456 26.366 26.315 26.267 26.195 26.125 26.019 25.94 25.836 25.784 25.736 25.784 25.698 25.729 25.601 25.605 25.578 25.639 25.615 25.61 25.529 25.496 25.455 25.415 25.4 25.416 25.454 25.476 25.514 25.556 25.61 25.651 25.731 25.812 25.874 25.903 26.006 26.085 26.139 26.151 26.222 26.194 26.212 26.205 26.134 26.097 26.106 26.246 26.267 26.159 26.189 26.214 26.274 26.265 26.272 26.277 26.284 26.292 26.3 26.308 26.344 26.334 26.383 26.368 26.418 26.492 26.501 26.348 26.354 26.269 26.284 26.142 26.068 26.019 25.929 25.93 25.844 25.775 25.8 25.697 25.771 25.759 25.743 25.769 25.844 25.909 25.898 25.973 26.015 26.113 26.141 26.164 26.148 26.142 26.08 25.95 25.956 25.812 25.781 25.578 25.546 25.301 25.247 25.042 25.043 24.879 24.863 24.761 24.754 24.663 24.57 24.484 24.423 24.425 24.259 24.293 24.234 24.226 24.168
26.191 26.242 26.303 26.347 26.353 26.349 26.327 26.249 26.195 26.087 25.989 25.869 25.742 25.604 25.509 25.42 25.348 25.303 25.315 25.341 25.344 25.353 25.382 25.395 25.367 25.357 25.352 25.344 25.327 25.338 25.35 25.379 25.394 25.448 25.45 25.42 25.443 25.425 25.407 25.366 25.396 25.372 25.353 25.298 25.265 25.2 25.136 25.061 25.006 24.905 24.841 24.795 24.746 24.696 24.679 24.679 24.646 24.657 24.673 24.655 24.662 24.677 24.67 24.66 24.636 24.629 24.634 24.612 24.602 24.608 24.546 24.527 24.479 24.417 24.329 24.307 24.324 24.355 24.429 24.487 24.523 24.52 24.538 24.575 24.564 24.578 24.608 24.622 24.593 24.62 24.534 24.52 24.532 24.567 24.613 24.622 24.65 24.698 24.794 24.839 24.871 24.863 25.258 24.418 23.779 25.131 25.4 25.295 25.242 25.21 25.153 25.126 25.077 25.083 25.038 25.014 24.967 24.93 24.933 24.853 24.804 24.761 24.727 24.705 24.686 24.631 24.628 24.592 24.592 24.577 24.574 24.608 24.56 24.591 24.561 24.569 24.542 24.551 24.571 24.582 24.588 24.575 24.603 24.577 24.579 24.547 24.541 24.513 24.487 24.495 24.538 24.519 24.562 24.558 24.582 24.588 24.624 24.573 24.582 24.585 24.612 24.591 24.598 24.578 24.611 24.574 24.591 24.531 24.526 24.511 24.497 24.506 24.483 24.472 24.481 24.515 24.465 24.458 24.422 24.457 24.465 24.487 24.487 24.541 24.555 24.602 24.697 24.748 24.807 24.872 24.929 24.988 24.987 25.067 25.096 25.161 25.151 25.165 25.193 25.212 25.224 25.226 25.215 25.213 25.2 25.198 25.205 25.225 25.216 25.284 25.299 25.382 25.357 25.429 25.446 25.505 25.52 25.533 25.545 25.553 25.556 25.541 25.555 25.558 25.568 25.592 25.629 25.661 25.668 25.709 25.699 25.732 25.675 25.715 25.71 25.716 25.731 25.735 25.771 25.801 25.841 25.875 25.872 25.929 25.958 26.018 26.047 26.094 26.402 26.48 26.602 26.615 26.644 26.677 26.679 26.746 26.74 26.801 26.816 26.872 26.893 26.936 27.007 27.064 27.104 27.152 27.151 27.155 27.16 27.175 27.158 27.165 27.16 27.167 27.153 27.162 27.142 27.154 27.138 27.161 27.122 27.139 27.149 27.2 27.221 27.245 27.3 27.289 27.334 27.335 27.386 27.397 27.428 27.466 27.475 27.465 27.441 27.426 27.436 27.368 27.387 27.317 27.257 27.195 27.092 27.104 26.979 26.934 26.832 26.767 26.733 26.66 26.602 26.581 26.435 26.412 26.316 26.355 26.223 26.199 26.043 26.014 25.887 25.852 25.771 25.829 25.775 25.801 25.696 25.669 25.673 25.728 25.728 25.596 25.562 25.519 25.458 25.41 25.41 25.386 25.497 25.445 25.535 25.52 25.633 25.621 25.743 25.798 25.854 25.925 26.037 26.049 26.114 26.163 26.223 26.232 26.202 26.224 26.151 26.151 26.163 26.306 26.222 26.224 26.267 26.29 26.346 26.348 26.3 26.313 26.334 26.375 26.331 26.339 26.365 26.356 26.437 26.369 26.449 26.47 26.432 26.438 26.417 26.363 26.336 26.187 26.088 26.061 25.991 25.966 25.942 25.839 25.857 25.742 25.795 25.746 25.742 25.784 25.828 25.908 25.927 26.01 26.049 26.122 26.157 26.23 26.216 26.177 26.158 26.057 26.04 25.893 25.853 25.674 25.599 25.372 25.332 25.147 25.086 25.007 24.903 24.838 24.733 24.739 24.64 24.634 24.479 24.515 24.365 24.35 24.346 24.395 24.29
26.189 26.226 26.279 26.322 26.312 26.352 26.323 26.268 26.198 26.071 25.967 25.85 25.731 25.583 25.528 25.433 25.392 25.365 25.352 25.373 25.348 25.345 25.363 25.377 25.371 25.37 25.36 25.33 25.319 25.313 25.325 25.355 25.409 25.421 25.468 25.498 25.506 25.449 25.383 25.314 25.388 25.386 25.362 25.312 25.258 25.198 25.14 25.063 25 24.877 24.787 24.732 24.717 24.654 24.612 24.623 24.643 24.639 24.655 24.666 24.635 24.668 24.676 24.66 24.642 24.625 24.596 24.596 24.595 24.595 24.562 24.523 24.538 24.508 24.48 24.36 24.365 24.385 24.505 24.491 24.516 24.516 24.528 24.542 24.527 24.568 24.55 24.547 24.541 24.555 24.58 24.504 24.528 24.563 24.595 24.61 24.636 24.697 24.75 24.81 24.852 24.836 25.189 24.83 23.699 24.55 25.369 25.301 25.249 25.187 25.152 25.124 25.078 25.083 25.028 24.985 24.975 24.915 24.871 24.891 24.805 24.737 24.717 24.689 24.727 24.62 24.615 24.6 24.644 24.588 24.628 24.604 24.611 24.571 24.589 24.588 24.572 24.58 24.577 24.605 24.597 24.6 24.583 24.572 24.581 24.557 24.557 24.512 24.522 24.471 24.489 24.505 24.541 24.539 24.556 24.54 24.563 24.553 24.571 24.568 24.587 24.592 24.584 24.589 24.59 24.578 24.573 24.546 24.553 24.525 24.482 24.484 24.439 24.419 24.455 24.466 24.455 24.439 24.456 24.463 24.469 24.455 24.478 24.513 24.567 24.564 24.685 24.715 24.788 24.823 24.884 24.933 24.959 25.022 25.082 25.122 25.151 25.142 25.171 25.176 25.239 25.238 25.238 25.252 25.229 25.247 25.25 25.274 25.236 25.296 25.298 25.374 25.375 25.432 25.464 25.513 25.557 25.549 25.563 25.574 25.59 25.557 25.589 25.591 25.635 25.644 25.641 25.676 25.676 25.722 25.714 25.737 25.717 25.715 25.732 25.722 25.745 25.767 25.771 25.816 25.82 25.84 25.877 25.911 25.958 25.994 26.04 26.206 26.398 26.524 26.619 26.675 26.682 26.701 26.725 26.738 26.799 26.825 26.848 26.889 26.951 26.966 27.035 27.087 27.114 27.133 27.148 27.148 27.168 27.164 27.17 27.154 27.17 27.152 27.193 27.176 27.17 27.157 27.192 27.171 27.169 27.145 27.186 27.199 27.252 27.243 27.298 27.314 27.376 27.374 27.405 27.446 27.456 27.46 27.47 27.489 27.454 27.413 27.428 27.395 27.379 27.345 27.265 27.244 27.149 27.143 27.031 26.952 26.902 26.8 26.745 26.698 26.586 26.571 26.465 26.444 26.36 26.359 26.235 26.206 26.078 26.034 25.973 25.925 25.856 25.873 25.848 25.837 25.777 25.76 25.742 25.797 25.743 25.605 25.566 25.496 25.47 25.401 25.447 25.385 25.432 25.437 25.541 25.553 25.633 25.656 25.774 25.78 25.811 25.921 26.033 26.065 26.095 26.136 26.186 26.256 26.199 26.2 26.112 26.169 26.208 26.256 26.291 26.298 26.329 26.345 26.325 26.379 26.366 26.405 26.39 26.4 26.359 26.363 26.378 26.36 26.453 26.406 26.433 26.432 26.513 26.468 26.354 26.345 26.369 26.284 26.143 26.116 26.059 26.019 25.989 25.917 25.915 25.836 25.813 25.78 25.754 25.795 25.824 25.899 25.958 26.043 26.087 26.124 26.175 26.218 26.267 26.259 26.26 26.178 26.127 26.037 25.902 25.811 25.735 25.584 25.425 25.326 25.188 25.155 24.987 24.965 24.824 24.89 24.755 24.728 24.61 24.533 24.487 24.366 24.363 24.315 24.361
26.17 26.186 26.255 26.246 26.229 26.292 26.252 26.248 26.19 26.075 25.946 25.837 25.703 25.617 25.536 25.466 25.428 25.405 25.384 25.385 25.379 25.368 25.388 25.395 25.39 25.405 25.355 25.344 25.343 25.328 25.319 25.347 25.408 25.443 25.496 25.495 25.49 25.462 25.423 25.344 25.333 25.352 25.334 25.296 25.245 25.178 25.105 25.024 24.942 24.851 24.762 24.702 24.661 24.622 24.591 24.598 24.61 24.619 24.665 24.677 24.654 24.683 24.682 24.665 24.632 24.63 24.591 24.581 24.573 24.563 24.532 24.511 24.518 24.484 24.482 24.427 24.415 24.424 24.487 24.537 24.513 24.516 24.505 24.556 24.514 24.544 24.555 24.525 24.562 24.523 24.52 24.504 24.514 24.58 24.556 24.592 24.609 24.692 24.686 24.8 24.81 24.829 24.949 25.283 23.573 24.551 25.319 25.295 25.234 25.194 25.136 25.116 25.071 25.065 25.015 25.006 24.976 24.921 24.875 24.848 24.817 24.797 24.739 24.725 24.7 24.671 24.629 24.645 24.675 24.624 24.646 24.634 24.624 24.574 24.596 24.583 24.612 24.583 24.6 24.615 24.604 24.595 24.59 24.59 24.563 24.551 24.524 24.506 24.498 24.471 24.441 24.48 24.485 24.501 24.497 24.507 24.526 24.514 24.51 24.54 24.554 24.606 24.565 24.575 24.551 24.566 24.538 24.547 24.505 24.53 24.485 24.489 24.442 24.409 24.417 24.422 24.453 24.451 24.451 24.434 24.459 24.448 24.484 24.481 24.521 24.528 24.625 24.672 24.733 24.785 24.833 24.87 24.924 24.978 25.047 25.087 25.136 25.124 25.156 25.161 25.224 25.259 25.255 25.258 25.289 25.302 25.293 25.297 25.271 25.283 25.301 25.36 25.383 25.425 25.487 25.503 25.561 25.539 25.576 25.595 25.585 25.578 25.609 25.634 25.641 25.642 25.657 25.697 25.695 25.719 25.725 25.733 25.717 25.714 25.737 25.744 25.768 25.771 25.795 25.804 25.853 25.855 25.888 25.904 25.95 26.002 26.044 26.221 26.469 26.546 26.693 26.695 26.733 26.697 26.742 26.754 26.806 26.806 26.84 26.878 26.951 26.966 27.044 27.048 27.145 27.123 27.168 27.142 27.164 27.142 27.185 27.166 27.21 27.168 27.182 27.152 27.188 27.167 27.187 27.148 27.182 27.154 27.21 27.218 27.297 27.299 27.364 27.349 27.413 27.409 27.445 27.475 27.478 27.512 27.496 27.495 27.507 27.474 27.472 27.439 27.428 27.396 27.275 27.292 27.182 27.147 27.07 26.985 26.914 26.819 26.747 26.712 26.629 26.606 26.48 26.446 26.341 26.295 26.244 26.181 26.15 26.077 26.028 25.964 25.966 25.95 25.93 25.904 25.874 25.815 25.843 25.886 25.835 25.622 25.605 25.599 25.527 25.502 25.469 25.393 25.443 25.48 25.524 25.575 25.595 25.686 25.742 25.769 25.813 25.92 25.978 26.034 26.053 26.156 26.115 26.17 26.158 26.262 26.177 26.177 26.307 26.317 26.401 26.388 26.379 26.417 26.451 26.418 26.431 26.452 26.415 26.412 26.405 26.366 26.362 26.355 26.412 26.43 26.393 26.401 26.382 26.455 26.316 26.323 26.288 26.235 26.197 26.16 26.153 26.078 26.05 25.987 25.982 25.92 25.888 25.874 25.835 25.843 25.869 25.905 26.02 26.08 26.119 26.154 26.228 26.253 26.289 26.293 26.246 26.214 26.138 26.094 26.008 25.931 25.814 25.735 25.495 25.478 25.266 25.316 25.158 25.068 24.965 24.982 24.914 24.84 24.818 24.628 24.631 24.46 24.447 24.371 24.371
26.17 26.209 26.238 26.243 26.2 26.255 26.259 26.251 26.155 26.073 25.957 25.835 25.723 25.656 25.565 25.472 25.429 25.411 25.383 25.393 25.366 25.371 25.382 25.399 25.388 25.397 25.369 25.362 25.355 25.355 25.358 25.376 25.417 25.468 25.499 25.508 25.51 25.476 25.444 25.368 25.292 25.354 25.34 25.258 25.205 25.158 25.075 25.006 24.891 24.843 24.744 24.683 24.63 24.6 24.621 24.617 24.606 24.628 24.668 24.731 24.678 24.691 24.647 24.67 24.641 24.645 24.605 24.613 24.561 24.536 24.528 24.498 24.5 24.489 24.459 24.438 24.448 24.47 24.447 24.472 24.464 24.533 24.488 24.533 24.536 24.529 24.568 24.542 24.553 24.539 24.557 24.525 24.523 24.538 24.554 24.577 24.579 24.655 24.677 24.767 24.765 24.797 24.896 25.625 23.95 24.198 24.973 25.236 25.201 25.161 25.137 25.109 25.087 25.028 25.006 24.979 24.961 24.914 24.895 24.894 24.821 24.805 24.77 24.74 24.705 24.716 24.633 24.688 24.67 24.721 24.678 24.651 24.65 24.609 24.591 24.595 24.613 24.562 24.584 24.606 24.623 24.592 24.57 24.587 24.554 24.523 24.489 24.493 24.475 24.473 24.415 24.464 24.453 24.479 24.443 24.466 24.438 24.469 24.492 24.519 24.534 24.541 24.506 24.521 24.514 24.533 24.518 24.53 24.5 24.504 24.465 24.488 24.47 24.421 24.406 24.414 24.418 24.445 24.439 24.441 24.461 24.439 24.476 24.506 24.51 24.535 24.582 24.626 24.675 24.741 24.808 24.83 24.898 24.935 25.027 25.027 25.128 25.116 25.137 25.161 25.199 25.23 25.268 25.292 25.308 25.332 25.333 25.315 25.336 25.297 25.346 25.346 25.4 25.425 25.508 25.513 25.563 25.557 25.612 25.59 25.61 25.586 25.628 25.648 25.649 25.675 25.673 25.719 25.712 25.749 25.733 25.716 25.72 25.73 25.73 25.754 25.786 25.8 25.807 25.812 25.857 25.867 25.879 25.91 25.948 25.971 26.071 26.145 26.514 26.533 26.724 26.684 26.712 26.719 26.73 26.765 26.826 26.839 26.858 26.894 26.972 26.985 27.042 27.085 27.135 27.152 27.153 27.156 27.186 27.167 27.184 27.163 27.168 27.167 27.192 27.166 27.17 27.166 27.189 27.175 27.227 27.23 27.266 27.279 27.308 27.344 27.38 27.392 27.42 27.445 27.479 27.54 27.517 27.569 27.582 27.549 27.542 27.528 27.51 27.529 27.412 27.39 27.338 27.341 27.265 27.166 27.121 27.017 26.97 26.87 26.772 26.704 26.623 26.553 26.51 26.448 26.413 26.337 26.306 26.231 26.228 26.142 26.108 26.046 26.052 26.006 26.058 25.975 25.967 25.899 25.911 25.925 25.842 25.699 25.682 25.612 25.557 25.497 25.497 25.469 25.462 25.503 25.525 25.587 25.581 25.73 25.771 25.794 25.798 25.867 25.935 26.047 26.028 26.107 26.081 26.16 26.191 26.234 26.221 26.164 26.333 26.362 26.372 26.363 26.423 26.507 26.472 26.443 26.445 26.421 26.42 26.403 26.411 26.388 26.398 26.393 26.39 26.44 26.322 26.386 26.33 26.328 26.233 26.272 26.234 26.21 26.205 26.207 26.215 26.137 26.104 26.077 26.073 26.036 25.912 25.911 25.846 25.857 25.889 25.919 26.017 26.058 26.125 26.148 26.266 26.32 26.325 26.336 26.322 26.246 26.162 26.123 26.019 25.985 25.851 25.815 25.644 25.581 25.418 25.376 25.291 25.21 25.14 25.031 25.041 24.957 24.977 24.793 24.785 24.6 24.557 24.467 24.408
26.175 26.193 26.211 26.216 26.204 26.22 26.224 26.208 26.122 26.027 25.917 25.835 25.743 25.658 25.583 25.505 25.451 25.419 25.38 25.38 25.395 25.387 25.41 25.414 25.404 25.411 25.397 25.386 25.377 25.373 25.373 25.382 25.41 25.464 25.494 25.527 25.523 25.497 25.5 25.45 25.356 25.342 25.307 25.248 25.175 25.128 25.011 24.949 24.859 24.804 24.711 24.66 24.632 24.631 24.611 24.635 24.646 24.688 24.68 24.697 24.674 24.717 24.668 24.653 24.622 24.635 24.597 24.557 24.56 24.545 24.557 24.491 24.483 24.464 24.419 24.382 24.414 24.372 24.435 24.48 24.477 24.54 24.533 24.488 24.531 24.507 24.541 24.544 24.541 24.561 24.541 24.551 24.534 24.543 24.554 24.566 24.571 24.659 24.685 24.754 24.76 24.805 24.893 24.846 23.765 24.037 25.051 25.213 25.156 25.117 25.139 25.085 25.061 24.979 24.961 24.954 24.953 24.91 24.891 24.85 24.843 24.794 24.779 24.757 24.694 24.726 24.66 24.723 24.7 24.742 24.674 24.664 24.628 24.629 24.579 24.575 24.584 24.54 24.535 24.544 24.601 24.58 24.586 24.537 24.534 24.491 24.467 24.47 24.457 24.473 24.399 24.418 24.403 24.429 24.396 24.394 24.391 24.448 24.473 24.487 24.511 24.526 24.477 24.505 24.506 24.518 24.528 24.477 24.469 24.457 24.448 24.467 24.461 24.443 24.424 24.407 24.405 24.42 24.409 24.415 24.429 24.458 24.458 24.495 24.487 24.555 24.56 24.645 24.654 24.721 24.773 24.826 24.879 24.911 24.986 25.022 25.078 25.106 25.157 25.187 25.21 25.266 25.277 25.289 25.324 25.363 25.391 25.37 25.394 25.349 25.382 25.361 25.428 25.453 25.541 25.541 25.577 25.606 25.611 25.622 25.609 25.637 25.63 25.658 25.664 25.679 25.695 25.698 25.734 25.728 25.744 25.742 25.773 25.753 25.752 25.776 25.809 25.812 25.834 25.846 25.849 25.873 25.902 25.893 25.932 25.995 26.047 26.108 26.427 26.574 26.684 26.718 26.737 26.714 26.755 26.798 26.819 26.86 26.84 26.912 26.973 27.025 27.073 27.099 27.142 27.154 27.139 27.163 27.166 27.18 27.169 27.168 27.165 27.162 27.192 27.194 27.178 27.197 27.209 27.223 27.259 27.281 27.299 27.311 27.348 27.379 27.397 27.462 27.474 27.517 27.516 27.572 27.555 27.597 27.59 27.587 27.564 27.597 27.538 27.536 27.479 27.465 27.428 27.376 27.334 27.193 27.169 27.049 26.926 26.832 26.781 26.732 26.666 26.567 26.548 26.449 26.44 26.357 26.364 26.258 26.272 26.191 26.19 26.134 26.099 26.076 26.108 26.043 26.011 25.988 25.926 25.893 25.892 25.79 25.643 25.6 25.568 25.553 25.539 25.488 25.466 25.505 25.526 25.6 25.593 25.651 25.734 25.782 25.802 25.867 25.945 26.008 26.005 26.078 26.069 26.153 26.189 26.214 26.251 26.233 26.253 26.291 26.337 26.431 26.443 26.42 26.453 26.453 26.491 26.482 26.456 26.421 26.436 26.454 26.41 26.415 26.404 26.442 26.403 26.383 26.31 26.275 26.249 26.262 26.254 26.232 26.246 26.25 26.26 26.241 26.181 26.176 26.086 26.1 25.983 25.957 25.896 25.899 25.951 25.971 26.041 26.091 26.156 26.247 26.302 26.338 26.35 26.343 26.332 26.299 26.255 26.243 26.122 26.075 25.981 25.914 25.8 25.711 25.573 25.451 25.398 25.28 25.294 25.133 25.171 25.101 25.056 24.951 24.907 24.774 24.638 24.577 24.456
26.161 26.169 26.173 26.187 26.209 26.236 26.213 26.15 26.085 26.007 25.919 25.836 25.753 25.661 25.573 25.509 25.467 25.424 25.397 25.378 25.387 25.381 25.388 25.394 25.405 25.404 25.404 25.4 25.386 25.37 25.372 25.391 25.43 25.482 25.526 25.538 25.513 25.522 25.537 25.473 25.393 25.348 25.316 25.231 25.156 25.087 25.015 24.912 24.866 24.781 24.69 24.679 24.618 24.638 24.63 24.645 24.637 24.702 24.696 24.712 24.7 24.717 24.683 24.656 24.647 24.598 24.605 24.548 24.556 24.556 24.563 24.546 24.492 24.488 24.439 24.426 24.43 24.462 24.442 24.468 24.458 24.461 24.507 24.5 24.539 24.521 24.553 24.518 24.518 24.581 24.562 24.568 24.54 24.545 24.519 24.469 24.546 24.6 24.664 24.714 24.798 24.808 24.917 24.859 24.499 23.797 24.931 25.207 25.166 25.088 25.068 25.028 25.029 24.963 24.948 24.925 24.933 24.893 24.869 24.84 24.851 24.789 24.772 24.735 24.711 24.71 24.701 24.722 24.716 24.747 24.696 24.682 24.616 24.614 24.571 24.568 24.547 24.562 24.518 24.526 24.543 24.556 24.535 24.517 24.497 24.488 24.485 24.454 24.457 24.442 24.425 24.393 24.403 24.385 24.378 24.358 24.398 24.396 24.448 24.464 24.49 24.463 24.457 24.456 24.498 24.488 24.509 24.439 24.457 24.445 24.465 24.441 24.465 24.444 24.475 24.437 24.43 24.426 24.412 24.442 24.427 24.469 24.457 24.521 24.509 24.536 24.557 24.62 24.656 24.707 24.761 24.797 24.863 24.899 24.965 25.016 25.08 25.12 25.126 25.201 25.218 25.257 25.291 25.34 25.371 25.376 25.391 25.396 25.401 25.367 25.39 25.412 25.435 25.472 25.51 25.565 25.57 25.618 25.616 25.622 25.624 25.633 25.645 25.672 25.691 25.682 25.692 25.725 25.753 25.757 25.789 25.797 25.787 25.807 25.821 25.841 25.878 25.846 25.849 25.876 25.87 25.906 25.909 25.944 25.968 26.002 26.038 26.1 26.264 26.576 26.664 26.742 26.727 26.726 26.747 26.821 26.821 26.861 26.855 26.946 26.951 27.005 27.029 27.073 27.103 27.149 27.132 27.169 27.139 27.179 27.167 27.207 27.18 27.219 27.172 27.222 27.178 27.213 27.199 27.281 27.263 27.306 27.306 27.355 27.36 27.441 27.425 27.507 27.52 27.558 27.575 27.618 27.643 27.665 27.662 27.665 27.667 27.644 27.615 27.614 27.547 27.497 27.481 27.378 27.37 27.218 27.199 27.093 26.981 26.888 26.798 26.719 26.67 26.572 26.554 26.472 26.429 26.372 26.364 26.33 26.298 26.27 26.249 26.236 26.156 26.16 26.192 26.163 26.071 26.07 26.014 25.98 25.898 25.834 25.706 25.661 25.635 25.587 25.535 25.498 25.46 25.473 25.51 25.587 25.617 25.643 25.68 25.754 25.793 25.845 25.945 25.982 26.01 26.015 26.044 26.056 26.24 26.148 26.212 26.183 26.235 26.276 26.295 26.35 26.385 26.52 26.452 26.42 26.445 26.473 26.461 26.435 26.434 26.441 26.432 26.435 26.456 26.426 26.384 26.355 26.313 26.26 26.267 26.265 26.295 26.252 26.278 26.33 26.304 26.348 26.268 26.28 26.207 26.17 26.1 26.057 26.019 25.99 25.993 26.04 26.112 26.176 26.204 26.252 26.262 26.308 26.34 26.386 26.372 26.331 26.306 26.256 26.198 26.116 26.087 25.967 25.931 25.764 25.803 25.558 25.567 25.401 25.425 25.438 25.478 25.24 25.146 25.132 25.023 24.95 24.787 24.69 24.571
26.134 26.141 26.151 26.178 26.199 26.2 26.191 26.118 26.046 25.972 25.908 25.822 25.745 25.646 25.571 25.506 25.467 25.429 25.385 25.38 25.37 25.381 25.373 25.366 25.376 25.392 25.389 25.391 25.387 25.383 25.386 25.419 25.45 25.499 25.555 25.562 25.589 25.586 25.566 25.483 25.401 25.367 25.313 25.248 25.209 25.091 25.023 24.916 24.844 24.759 24.696 24.652 24.645 24.648 24.651 24.68 24.667 24.745 24.751 24.771 24.772 24.721 24.749 24.652 24.665 24.613 24.619 24.567 24.535 24.564 24.562 24.529 24.522 24.525 24.497 24.471 24.439 24.461 24.434 24.441 24.48 24.471 24.545 24.506 24.573 24.535 24.542 24.523 24.54 24.575 24.534 24.526 24.52 24.561 24.525 24.451 24.517 24.555 24.61 24.657 24.749 24.811 24.87 24.961 24.366 23.607 24.768 25.211 25.12 25.077 25.02 25.02 25.005 24.939 24.886 24.897 24.875 24.872 24.862 24.839 24.819 24.767 24.775 24.742 24.723 24.712 24.725 24.718 24.741 24.729 24.712 24.699 24.643 24.597 24.581 24.543 24.541 24.535 24.506 24.494 24.543 24.511 24.524 24.505 24.498 24.462 24.48 24.442 24.458 24.402 24.399 24.368 24.392 24.355 24.375 24.343 24.384 24.404 24.44 24.446 24.457 24.461 24.476 24.502 24.527 24.496 24.547 24.461 24.496 24.464 24.502 24.475 24.478 24.475 24.469 24.461 24.436 24.467 24.433 24.438 24.451 24.502 24.53 24.566 24.542 24.568 24.548 24.6 24.634 24.676 24.712 24.761 24.807 24.872 24.926 25.007 25.032 25.12 25.145 25.222 25.243 25.296 25.342 25.354 25.392 25.397 25.44 25.451 25.426 25.451 25.429 25.484 25.493 25.527 25.55 25.601 25.613 25.67 25.681 25.678 25.687 25.719 25.705 25.724 25.74 25.759 25.78 25.785 25.805 25.814 25.847 25.837 25.85 25.847 25.883 25.903 25.907 25.919 25.903 25.913 25.907 25.926 25.942 25.963 26.001 26.048 26.064 26.155 26.227 26.578 26.636 26.772 26.756 26.733 26.739 26.795 26.809 26.871 26.849 26.926 26.921 26.981 27.016 27.07 27.078 27.144 27.138 27.193 27.163 27.183 27.166 27.172 27.195 27.212 27.199 27.221 27.202 27.218 27.234 27.274 27.271 27.311 27.329 27.366 27.396 27.453 27.491 27.56 27.569 27.588 27.645 27.676 27.745 27.722 27.764 27.763 27.733 27.714 27.663 27.634 27.619 27.546 27.561 27.415 27.38 27.278 27.197 27.144 26.984 26.914 26.805 26.73 26.688 26.577 26.545 26.463 26.447 26.403 26.35 26.331 26.304 26.304 26.268 26.29 26.238 26.245 26.209 26.234 26.116 26.138 26.066 26.091 25.892 25.872 25.695 25.718 25.645 25.601 25.534 25.537 25.525 25.455 25.503 25.551 25.605 25.633 25.671 25.712 25.76 25.815 25.894 25.954 25.984 25.97 26.021 25.999 26.097 26.122 26.166 26.211 26.217 26.299 26.283 26.344 26.406 26.477 26.462 26.41 26.404 26.454 26.478 26.462 26.415 26.435 26.441 26.468 26.495 26.445 26.414 26.359 26.346 26.28 26.3 26.294 26.303 26.319 26.328 26.404 26.346 26.401 26.391 26.365 26.343 26.291 26.249 26.143 26.158 26.055 26.096 26.206 26.156 26.194 26.189 26.279 26.268 26.311 26.328 26.418 26.397 26.385 26.35 26.296 26.309 26.183 26.191 26.079 26.025 25.81 25.9 25.676 25.645 25.57 25.55 25.647 25.441 25.371 25.286 25.295 25.153 25.101 24.935 24.894 24.691
26.114 26.124 26.113 26.147 26.145 26.146 26.121 26.041 26.017 25.961 25.907 25.82 25.743 25.659 25.589 25.512 25.447 25.41 25.381 25.384 25.375 25.377 25.375 25.368 25.374 25.389 25.4 25.408 25.4 25.409 25.407 25.45 25.489 25.542 25.583 25.615 25.615 25.611 25.579 25.513 25.426 25.396 25.332 25.306 25.186 25.112 24.988 24.921 24.823 24.79 24.715 24.716 24.658 24.681 24.683 24.712 24.702 24.765 24.793 24.805 24.822 24.763 24.773 24.687 24.684 24.639 24.624 24.645 24.588 24.609 24.567 24.559 24.552 24.526 24.504 24.472 24.442 24.423 24.452 24.447 24.515 24.478 24.541 24.49 24.531 24.576 24.543 24.575 24.539 24.535 24.52 24.515 24.519 24.496 24.507 24.514 24.556 24.569 24.631 24.695 24.797 24.804 24.865 24.996 24.321 23.614 24.527 25.152 25.059 25.062 24.971 24.968 24.914 24.9 24.856 24.883 24.844 24.87 24.845 24.81 24.784 24.746 24.749 24.747 24.761 24.719 24.756 24.715 24.767 24.72 24.735 24.658 24.648 24.598 24.574 24.556 24.537 24.506 24.488 24.498 24.512 24.549 24.518 24.486 24.45 24.418 24.442 24.423 24.441 24.397 24.41 24.347 24.386 24.363 24.353 24.344 24.364 24.396 24.424 24.414 24.46 24.467 24.477 24.494 24.548 24.522 24.55 24.539 24.525 24.506 24.518 24.511 24.509 24.515 24.493 24.509 24.482 24.508 24.487 24.492 24.502 24.539 24.568 24.577 24.583 24.566 24.554 24.578 24.625 24.656 24.704 24.76 24.808 24.854 24.91 25.011 25.033 25.106 25.131 25.178 25.243 25.294 25.342 25.347 25.395 25.42 25.451 25.488 25.465 25.5 25.484 25.512 25.522 25.557 25.568 25.646 25.649 25.715 25.728 25.752 25.755 25.751 25.759 25.763 25.805 25.795 25.828 25.813 25.838 25.836 25.849 25.859 25.867 25.891 25.894 25.89 25.908 25.929 25.926 25.918 25.925 25.972 26.01 26.092 26.105 26.133 26.124 26.211 26.333 26.564 26.691 26.763 26.74 26.74 26.738 26.793 26.808 26.862 26.875 26.924 26.948 27 27.012 27.051 27.093 27.109 27.121 27.125 27.146 27.156 27.171 27.177 27.184 27.205 27.216 27.228 27.219 27.231 27.255 27.306 27.315 27.345 27.379 27.431 27.477 27.487 27.533 27.576 27.626 27.657 27.74 27.707 27.783 27.77 27.797 27.805 27.793 27.777 27.74 27.688 27.678 27.609 27.582 27.468 27.402 27.352 27.182 27.14 26.995 26.94 26.831 26.741 26.675 26.603 26.534 26.495 26.427 26.411 26.331 26.368 26.347 26.348 26.312 26.353 26.282 26.302 26.272 26.283 26.197 26.204 26.142 26.156 25.963 25.897 25.796 25.733 25.685 25.652 25.58 25.529 25.501 25.472 25.503 25.557 25.586 25.632 25.702 25.707 25.761 25.858 25.887 25.941 25.945 25.94 25.955 26.016 26.041 26.098 26.175 26.245 26.23 26.337 26.276 26.341 26.417 26.45 26.47 26.417 26.412 26.437 26.486 26.481 26.438 26.454 26.416 26.48 26.481 26.397 26.425 26.366 26.411 26.355 26.339 26.331 26.36 26.384 26.405 26.443 26.45 26.477 26.551 26.516 26.484 26.406 26.416 26.278 26.268 26.161 26.171 26.178 26.178 26.231 26.266 26.296 26.292 26.33 26.374 26.412 26.426 26.413 26.4 26.396 26.324 26.236 26.2 26.117 26.067 25.949 25.892 25.833 25.726 25.694 25.598 25.577 25.482 25.484 25.362 25.424 25.308 25.236 25.076 24.998 24.801
26.1 26.109 26.114 26.122 26.129 26.115 26.087 26.027 25.985 25.947 25.883 25.818 25.743 25.677 25.597 25.532 25.466 25.421 25.387 25.376 25.376 25.367 25.363 25.363 25.385 25.405 25.4 25.415 25.426 25.439 25.467 25.486 25.52 25.573 25.59 25.613 25.646 25.634 25.579 25.544 25.43 25.418 25.326 25.286 25.143 25.103 24.993 24.917 24.838 24.794 24.726 24.676 24.642 24.665 24.714 24.722 24.747 24.786 24.85 24.814 24.778 24.778 24.766 24.705 24.678 24.67 24.609 24.631 24.607 24.627 24.569 24.569 24.542 24.541 24.555 24.494 24.489 24.468 24.459 24.436 24.473 24.494 24.513 24.535 24.507 24.6 24.549 24.573 24.55 24.562 24.525 24.517 24.549 24.497 24.496 24.507 24.542 24.599 24.658 24.706 24.782 24.843 24.828 24.9 24.515 23.555 24.211 25.076 25.079 25.024 24.932 24.921 24.874 24.866 24.815 24.852 24.795 24.83 24.811 24.807 24.744 24.74 24.72 24.747 24.748 24.739 24.746 24.722 24.753 24.733 24.734 24.669 24.673 24.596 24.587 24.552 24.549 24.499 24.516 24.51 24.506 24.525 24.504 24.46 24.444 24.426 24.447 24.406 24.442 24.387 24.417 24.375 24.382 24.372 24.369 24.355 24.394 24.394 24.416 24.44 24.458 24.465 24.491 24.498 24.5 24.526 24.553 24.572 24.526 24.537 24.515 24.545 24.53 24.534 24.503 24.522 24.521 24.522 24.515 24.507 24.53 24.528 24.569 24.556 24.581 24.574 24.578 24.58 24.602 24.656 24.718 24.748 24.778 24.824 24.889 24.965 25.034 25.09 25.143 25.196 25.261 25.271 25.345 25.342 25.41 25.437 25.474 25.515 25.518 25.539 25.527 25.545 25.547 25.581 25.61 25.634 25.669 25.706 25.74 25.741 25.742 25.755 25.78 25.775 25.806 25.798 25.823 25.828 25.825 25.857 25.865 25.881 25.886 25.891 25.898 25.901 25.909 25.93 25.932 25.929 25.967 26.018 26.058 26.11 26.144 26.163 26.192 26.298 26.465 26.581 26.674 26.752 26.78 26.762 26.748 26.771 26.813 26.851 26.882 26.915 26.979 26.971 27.004 27.042 27.078 27.087 27.158 27.126 27.16 27.148 27.183 27.167 27.187 27.196 27.226 27.23 27.249 27.255 27.302 27.317 27.343 27.38 27.409 27.43 27.489 27.511 27.589 27.588 27.664 27.681 27.758 27.783 27.845 27.817 27.861 27.864 27.841 27.815 27.812 27.74 27.737 27.64 27.579 27.524 27.398 27.38 27.228 27.175 27.05 26.957 26.867 26.75 26.658 26.607 26.549 26.514 26.426 26.445 26.373 26.377 26.354 26.4 26.328 26.373 26.331 26.342 26.317 26.327 26.288 26.237 26.224 26.235 26.22 26.005 25.903 25.804 25.709 25.612 25.615 25.592 25.488 25.463 25.605 25.517 25.541 25.601 25.672 25.699 25.729 25.824 25.896 25.863 25.9 25.912 25.981 26.015 26.06 26.124 26.215 26.361 26.324 26.347 26.267 26.299 26.334 26.353 26.405 26.368 26.449 26.474 26.526 26.437 26.432 26.414 26.428 26.451 26.437 26.447 26.449 26.395 26.38 26.342 26.346 26.38 26.355 26.421 26.481 26.499 26.545 26.542 26.643 26.561 26.559 26.472 26.515 26.399 26.433 26.348 26.293 26.288 26.28 26.296 26.323 26.331 26.37 26.362 26.364 26.402 26.409 26.417 26.43 26.395 26.354 26.316 26.259 26.205 26.134 26.069 25.967 25.95 25.753 25.77 25.688 25.664 25.593 25.585 25.496 25.512 25.434 25.369 25.261 25.094 25.043
26.089 26.088 26.097 26.083 26.099 26.099 26.066 26.017 25.972 25.923 25.873 25.813 25.749 25.677 25.595 25.536 25.473 25.429 25.407 25.379 25.357 25.349 25.341 25.344 25.372 25.401 25.419 25.417 25.45 25.468 25.5 25.529 25.552 25.6 25.63 25.642 25.641 25.627 25.572 25.548 25.446 25.423 25.325 25.252 25.154 25.084 24.949 24.89 24.807 24.775 24.765 24.707 24.677 24.665 24.711 24.742 24.795 24.812 24.826 24.821 24.814 24.816 24.778 24.787 24.654 24.694 24.611 24.615 24.599 24.598 24.534 24.594 24.574 24.543 24.528 24.496 24.507 24.477 24.425 24.419 24.514 24.566 24.509 24.57 24.537 24.595 24.569 24.607 24.555 24.554 24.535 24.519 24.55 24.499 24.532 24.585 24.613 24.659 24.669 24.718 24.728 24.807 24.792 24.887 24.899 23.857 24.085 24.975 25.029 24.984 24.916 24.881 24.818 24.798 24.801 24.814 24.761 24.779 24.767 24.794 24.731 24.76 24.726 24.763 24.752 24.77 24.749 24.778 24.757 24.74 24.745 24.679 24.678 24.652 24.604 24.575 24.561 24.534 24.542 24.52 24.517 24.559 24.507 24.492 24.461 24.459 24.431 24.435 24.411 24.431 24.398 24.395 24.378 24.381 24.353 24.359 24.373 24.444 24.431 24.462 24.458 24.453 24.456 24.498 24.473 24.478 24.503 24.549 24.492 24.543 24.502 24.52 24.496 24.523 24.532 24.544 24.542 24.544 24.538 24.557 24.576 24.566 24.598 24.577 24.61 24.588 24.6 24.618 24.629 24.689 24.723 24.768 24.799 24.849 24.902 24.958 25.055 25.09 25.189 25.196 25.25 25.293 25.368 25.403 25.439 25.49 25.525 25.571 25.567 25.574 25.569 25.581 25.618 25.632 25.658 25.657 25.7 25.718 25.777 25.764 25.782 25.78 25.794 25.769 25.814 25.807 25.824 25.846 25.878 25.896 25.903 25.912 25.91 25.922 25.918 25.939 25.932 25.955 25.969 25.99 26.038 26.071 26.107 26.138 26.206 26.238 26.296 26.367 26.488 26.587 26.739 26.753 26.768 26.754 26.76 26.759 26.818 26.822 26.864 26.9 26.967 26.973 27.053 27.043 27.081 27.08 27.154 27.155 27.167 27.16 27.194 27.167 27.206 27.209 27.262 27.265 27.304 27.285 27.305 27.334 27.369 27.383 27.44 27.456 27.516 27.56 27.625 27.662 27.712 27.754 27.822 27.85 27.873 27.904 27.912 27.938 27.905 27.889 27.877 27.827 27.775 27.71 27.608 27.581 27.429 27.383 27.26 27.155 27.109 26.987 26.872 26.782 26.692 26.634 26.533 26.49 26.419 26.423 26.365 26.352 26.368 26.357 26.329 26.369 26.4 26.394 26.36 26.352 26.345 26.257 26.269 26.258 26.269 26.153 26.119 25.815 25.782 25.692 25.664 25.572 25.525 25.501 25.547 25.552 25.529 25.531 25.575 25.642 25.664 25.71 25.756 25.83 25.806 25.879 25.899 25.953 26.01 26.161 26.152 26.306 26.285 26.238 26.255 26.255 26.306 26.319 26.339 26.286 26.407 26.408 26.388 26.397 26.424 26.424 26.442 26.467 26.467 26.489 26.446 26.475 26.381 26.389 26.347 26.457 26.435 26.486 26.538 26.532 26.657 26.627 26.679 26.671 26.672 26.614 26.597 26.533 26.471 26.463 26.407 26.394 26.389 26.394 26.374 26.379 26.399 26.371 26.399 26.435 26.477 26.46 26.44 26.404 26.42 26.355 26.289 26.258 26.201 26.122 25.999 25.985 25.835 25.84 25.771 25.742 25.653 25.624 25.619 25.558 25.575 25.446 25.371 25.181 25.19
26.11 26.082 26.089 26.071 26.086 26.098 26.058 25.996 25.957 25.905 25.852 25.801 25.723 25.666 25.602 25.547 25.492 25.441 25.41 25.391 25.354 25.344 25.315 25.323 25.364 25.397 25.419 25.434 25.458 25.493 25.527 25.547 25.595 25.636 25.644 25.707 25.67 25.643 25.589 25.563 25.491 25.368 25.318 25.219 25.143 25.048 25.002 24.903 24.868 24.771 24.783 24.733 24.708 24.708 24.767 24.747 24.797 24.814 24.858 24.837 24.834 24.846 24.769 24.725 24.674 24.68 24.611 24.619 24.587 24.574 24.558 24.549 24.551 24.519 24.505 24.503 24.47 24.446 24.458 24.422 24.467 24.493 24.519 24.556 24.543 24.584 24.569 24.54 24.571 24.554 24.561 24.499 24.536 24.54 24.546 24.618 24.643 24.71 24.673 24.68 24.69 24.758 24.749 24.832 24.778 23.684 23.685 24.928 25.03 24.956 24.9 24.857 24.787 24.798 24.805 24.786 24.815 24.795 24.785 24.788 24.801 24.797 24.771 24.77 24.742 24.783 24.742 24.791 24.746 24.753 24.701 24.735 24.678 24.663 24.624 24.579 24.571 24.541 24.515 24.499 24.509 24.495 24.485 24.466 24.462 24.435 24.428 24.433 24.425 24.416 24.402 24.411 24.386 24.41 24.405 24.418 24.411 24.43 24.417 24.442 24.447 24.457 24.454 24.464 24.483 24.494 24.508 24.548 24.539 24.543 24.537 24.555 24.532 24.558 24.557 24.563 24.585 24.576 24.598 24.594 24.602 24.608 24.62 24.599 24.591 24.605 24.631 24.648 24.671 24.72 24.735 24.794 24.817 24.865 24.918 24.972 25.046 25.09 25.159 25.202 25.269 25.32 25.363 25.409 25.459 25.514 25.548 25.595 25.615 25.616 25.647 25.643 25.706 25.688 25.732 25.711 25.771 25.769 25.819 25.8 25.817 25.82 25.823 25.838 25.874 25.887 25.899 25.943 25.924 25.961 25.928 25.939 25.929 25.933 25.958 25.954 25.963 25.984 25.995 26.032 26.075 26.097 26.147 26.16 26.24 26.276 26.348 26.412 26.519 26.592 26.766 26.777 26.749 26.731 26.744 26.78 26.815 26.821 26.842 26.889 26.924 26.987 27 27.033 27.045 27.066 27.13 27.141 27.142 27.163 27.182 27.199 27.228 27.254 27.284 27.271 27.304 27.331 27.35 27.366 27.413 27.437 27.511 27.521 27.576 27.606 27.672 27.7 27.734 27.808 27.858 27.926 27.931 27.989 27.959 27.972 27.942 27.934 27.93 27.847 27.767 27.748 27.62 27.601 27.486 27.414 27.327 27.176 27.156 26.976 26.897 26.797 26.668 26.559 26.505 26.421 26.406 26.376 26.384 26.319 26.357 26.338 26.38 26.375 26.417 26.396 26.415 26.373 26.384 26.31 26.296 26.258 26.252 26.213 26.17 25.945 25.869 25.712 25.657 25.613 25.531 25.563 25.538 25.569 25.564 25.582 25.502 25.634 25.598 25.657 25.664 25.734 25.734 25.786 25.826 25.897 26.02 26.12 26.189 26.217 26.252 26.215 26.238 26.214 26.274 26.244 26.265 26.284 26.301 26.322 26.342 26.37 26.405 26.406 26.391 26.458 26.493 26.518 26.421 26.473 26.382 26.423 26.484 26.562 26.51 26.516 26.583 26.587 26.721 26.74 26.739 26.737 26.734 26.719 26.687 26.658 26.605 26.605 26.523 26.489 26.454 26.416 26.455 26.435 26.428 26.377 26.421 26.437 26.498 26.465 26.473 26.426 26.471 26.411 26.321 26.289 26.213 26.194 26.056 26.005 25.933 25.882 25.854 25.787 25.784 25.693 25.68 25.611 25.618 25.525 25.514 25.351 25.297
26.127 26.108 26.096 26.081 26.069 26.06 26.035 25.967 25.915 25.882 25.824 25.771 25.716 25.666 25.615 25.56 25.498 25.446 25.394 25.36 25.344 25.326 25.32 25.328 25.376 25.397 25.437 25.462 25.491 25.527 25.562 25.596 25.618 25.663 25.682 25.683 25.678 25.658 25.604 25.551 25.521 25.376 25.341 25.206 25.135 25.035 24.972 24.901 24.844 24.795 24.803 24.75 24.748 24.74 24.75 24.759 24.8 24.84 24.824 24.86 24.837 24.847 24.774 24.738 24.656 24.642 24.615 24.604 24.598 24.557 24.587 24.53 24.541 24.501 24.518 24.483 24.431 24.416 24.438 24.44 24.443 24.473 24.471 24.493 24.525 24.528 24.559 24.55 24.589 24.573 24.558 24.546 24.552 24.515 24.585 24.627 24.665 24.713 24.701 24.69 24.709 24.747 24.78 24.785 24.835 24.005 23.482 24.69 25.036 24.96 24.947 24.887 24.876 24.821 24.844 24.802 24.804 24.771 24.797 24.783 24.797 24.783 24.772 24.77 24.778 24.783 24.758 24.79 24.744 24.741 24.727 24.743 24.692 24.696 24.659 24.617 24.6 24.567 24.559 24.542 24.538 24.519 24.506 24.502 24.489 24.471 24.461 24.455 24.443 24.448 24.442 24.43 24.42 24.421 24.42 24.435 24.445 24.47 24.464 24.47 24.482 24.517 24.515 24.534 24.519 24.534 24.538 24.562 24.579 24.559 24.579 24.56 24.575 24.58 24.59 24.577 24.585 24.582 24.582 24.604 24.61 24.607 24.588 24.628 24.607 24.628 24.624 24.654 24.671 24.714 24.74 24.775 24.817 24.855 24.917 24.951 25.019 25.064 25.13 25.188 25.236 25.293 25.335 25.414 25.431 25.501 25.546 25.596 25.64 25.644 25.677 25.679 25.724 25.729 25.753 25.764 25.783 25.81 25.838 25.856 25.846 25.86 25.871 25.917 25.913 25.966 25.938 25.983 25.957 25.994 25.967 25.999 25.973 25.958 25.957 25.96 25.974 25.996 26.028 26.037 26.08 26.094 26.153 26.175 26.254 26.308 26.421 26.479 26.565 26.647 26.743 26.789 26.757 26.733 26.739 26.772 26.781 26.8 26.79 26.861 26.891 26.953 26.985 27.062 27.047 27.099 27.105 27.149 27.128 27.179 27.17 27.217 27.215 27.255 27.283 27.288 27.307 27.362 27.372 27.4 27.445 27.461 27.507 27.562 27.595 27.659 27.708 27.75 27.767 27.845 27.87 27.946 27.953 27.99 28.001 27.997 27.99 27.976 27.95 27.91 27.801 27.784 27.651 27.601 27.539 27.404 27.394 27.206 27.126 26.972 26.88 26.796 26.682 26.601 26.527 26.491 26.467 26.384 26.406 26.3 26.348 26.351 26.391 26.398 26.44 26.414 26.435 26.399 26.359 26.326 26.322 26.267 26.208 26.17 26.09 26.017 25.989 25.833 25.74 25.631 25.538 25.558 25.519 25.565 25.524 25.57 25.529 25.575 25.583 25.624 25.608 25.685 25.688 25.71 25.743 25.91 25.977 26.047 26.067 26.091 26.112 26.121 26.13 26.137 26.209 26.245 26.263 26.298 26.269 26.267 26.299 26.351 26.368 26.371 26.386 26.472 26.443 26.46 26.444 26.502 26.451 26.477 26.492 26.515 26.547 26.567 26.632 26.667 26.704 26.752 26.777 26.812 26.792 26.884 26.793 26.81 26.739 26.732 26.649 26.614 26.53 26.496 26.488 26.457 26.44 26.447 26.455 26.425 26.476 26.508 26.485 26.485 26.468 26.427 26.374 26.324 26.254 26.204 26.122 26.044 26.013 25.926 25.935 25.816 25.822 25.715 25.746 25.657 25.707 25.624 25.629 25.521 25.407
26.146 26.115 26.088 26.062 26.049 26.031 25.995 25.935 25.879 25.837 25.8 25.771 25.741 25.689 25.619 25.556 25.519 25.459 25.407 25.352 25.345 25.333 25.333 25.359 25.392 25.438 25.466 25.493 25.524 25.584 25.606 25.672 25.661 25.657 25.68 25.677 25.691 25.645 25.632 25.559 25.501 25.359 25.317 25.16 25.142 25.01 24.971 24.909 24.855 24.785 24.808 24.758 24.752 24.76 24.755 24.793 24.791 24.796 24.801 24.816 24.8 24.781 24.748 24.696 24.653 24.612 24.646 24.592 24.6 24.557 24.613 24.527 24.528 24.518 24.511 24.494 24.457 24.435 24.44 24.453 24.428 24.455 24.467 24.468 24.518 24.525 24.558 24.539 24.581 24.568 24.551 24.564 24.58 24.616 24.581 24.612 24.601 24.635 24.696 24.707 24.744 24.762 24.768 24.804 24.808 23.975 23.095 24.47 25.037 24.986 24.959 24.901 24.897 24.843 24.838 24.819 24.85 24.79 24.834 24.798 24.82 24.779 24.804 24.764 24.77 24.761 24.769 24.791 24.775 24.76 24.747 24.755 24.726 24.728 24.678 24.64 24.592 24.586 24.57 24.574 24.546 24.544 24.547 24.505 24.506 24.501 24.496 24.472 24.483 24.453 24.454 24.447 24.456 24.441 24.469 24.455 24.48 24.502 24.496 24.49 24.529 24.546 24.537 24.577 24.563 24.561 24.578 24.573 24.584 24.574 24.598 24.583 24.608 24.586 24.599 24.568 24.557 24.568 24.564 24.579 24.559 24.581 24.557 24.588 24.601 24.637 24.625 24.672 24.667 24.695 24.729 24.776 24.836 24.849 24.9 24.938 24.992 25.039 25.084 25.178 25.183 25.271 25.293 25.387 25.426 25.501 25.559 25.62 25.687 25.677 25.717 25.711 25.729 25.751 25.766 25.789 25.813 25.854 25.858 25.89 25.875 25.909 25.903 25.934 25.929 25.971 25.968 25.967 25.978 25.973 25.954 25.964 25.974 25.964 25.998 25.983 26.011 26.012 26.023 26.041 26.075 26.123 26.181 26.225 26.37 26.482 26.497 26.514 26.598 26.698 26.768 26.774 26.724 26.723 26.699 26.749 26.74 26.777 26.775 26.89 26.903 26.994 26.99 27.066 27.05 27.081 27.075 27.117 27.122 27.162 27.182 27.216 27.223 27.258 27.279 27.327 27.35 27.375 27.406 27.429 27.463 27.483 27.566 27.605 27.654 27.691 27.729 27.791 27.827 27.883 27.894 27.956 27.977 28.007 28.055 28.04 28.023 28.003 28.003 27.936 27.86 27.812 27.71 27.593 27.566 27.394 27.356 27.243 27.137 27.052 26.908 26.854 26.727 26.613 26.541 26.485 26.433 26.387 26.37 26.318 26.312 26.346 26.375 26.383 26.393 26.417 26.393 26.403 26.37 26.315 26.265 26.266 26.164 26.144 26.042 26.015 25.993 25.939 25.944 25.834 25.808 25.683 25.555 25.545 25.517 25.547 25.554 25.586 25.603 25.634 25.609 25.615 25.645 25.673 25.779 25.837 25.96 25.941 25.966 26.016 26.031 26.033 26.025 26.04 26.072 26.223 26.233 26.189 26.215 26.225 26.24 26.3 26.329 26.362 26.372 26.384 26.377 26.416 26.46 26.482 26.475 26.491 26.549 26.56 26.602 26.59 26.638 26.716 26.745 26.805 26.783 26.893 26.836 26.912 26.913 26.88 26.813 26.777 26.752 26.685 26.662 26.66 26.614 26.542 26.51 26.518 26.473 26.447 26.445 26.444 26.422 26.421 26.419 26.403 26.354 26.313 26.341 26.207 26.181 26.066 26.062 25.954 25.978 25.888 25.902 25.783 25.785 25.738 25.716 25.704 25.654 25.673 25.506
26.13 26.127 26.098 26.063 26.046 26.015 25.976 25.9 25.859 25.803 25.775 25.744 25.706 25.676 25.615 25.55 25.523 25.462 25.41 25.372 25.343 25.319 25.336 25.369 25.384 25.445 25.476 25.513 25.537 25.594 25.64 25.643 25.678 25.67 25.694 25.681 25.695 25.639 25.643 25.524 25.483 25.384 25.267 25.207 25.131 25.01 24.987 24.914 24.861 24.844 24.791 24.776 24.726 24.721 24.734 24.777 24.772 24.792 24.814 24.819 24.777 24.76 24.728 24.673 24.655 24.59 24.641 24.615 24.593 24.545 24.588 24.541 24.523 24.515 24.481 24.485 24.439 24.436 24.418 24.427 24.409 24.413 24.462 24.445 24.473 24.462 24.514 24.502 24.503 24.56 24.567 24.593 24.609 24.636 24.617 24.646 24.627 24.64 24.706 24.714 24.791 24.784 24.759 24.825 24.907 24.486 23.133 24.043 25.022 25.046 24.977 24.947 24.911 24.864 24.838 24.846 24.853 24.832 24.812 24.795 24.803 24.784 24.787 24.77 24.796 24.751 24.782 24.768 24.808 24.741 24.753 24.725 24.761 24.746 24.709 24.704 24.658 24.629 24.612 24.613 24.572 24.551 24.532 24.52 24.527 24.51 24.51 24.488 24.475 24.461 24.491 24.464 24.484 24.462 24.495 24.46 24.48 24.478 24.489 24.486 24.503 24.508 24.531 24.533 24.547 24.556 24.562 24.565 24.59 24.584 24.593 24.582 24.63 24.594 24.6 24.581 24.583 24.558 24.549 24.555 24.552 24.558 24.564 24.589 24.589 24.592 24.584 24.599 24.624 24.615 24.642 24.696 24.763 24.798 24.841 24.929 24.964 25.028 25.062 25.127 25.138 25.264 25.288 25.392 25.414 25.526 25.565 25.64 25.685 25.692 25.695 25.712 25.73 25.769 25.775 25.823 25.826 25.867 25.864 25.907 25.881 25.899 25.896 25.945 25.922 25.965 25.946 25.961 25.964 25.948 25.992 26.013 25.996 25.993 26.05 26.112 26.106 26.19 26.169 26.228 26.296 26.432 26.394 26.431 26.473 26.485 26.521 26.579 26.633 26.726 26.739 26.736 26.698 26.695 26.695 26.732 26.718 26.784 26.818 26.874 26.915 26.967 27.003 27.066 27.05 27.071 27.078 27.111 27.139 27.163 27.168 27.21 27.211 27.231 27.28 27.316 27.361 27.421 27.466 27.494 27.511 27.537 27.599 27.638 27.686 27.731 27.773 27.813 27.863 27.925 27.961 28.01 28.067 28.043 28.104 28.071 28.055 28.004 27.989 27.94 27.894 27.804 27.783 27.63 27.609 27.464 27.413 27.305 27.137 27.123 26.905 26.856 26.729 26.657 26.522 26.467 26.396 26.373 26.338 26.342 26.316 26.331 26.322 26.357 26.332 26.39 26.345 26.399 26.38 26.363 26.232 26.229 26.113 26.077 25.995 25.922 25.863 25.812 25.857 25.866 25.967 25.804 25.784 25.665 25.462 25.531 25.531 25.516 25.593 25.567 25.596 25.557 25.623 25.647 25.686 25.727 25.871 25.784 25.904 25.966 25.92 25.965 25.921 25.958 25.959 26.057 26.055 26.107 26.114 26.162 26.18 26.207 26.273 26.298 26.339 26.35 26.4 26.37 26.426 26.425 26.513 26.501 26.534 26.549 26.612 26.638 26.675 26.783 26.788 26.861 26.865 26.916 26.936 26.989 26.968 26.922 26.904 26.846 26.831 26.729 26.756 26.666 26.651 26.574 26.571 26.52 26.47 26.428 26.448 26.442 26.376 26.373 26.364 26.375 26.307 26.321 26.286 26.189 26.177 26.076 26.055 26.007 25.995 25.932 25.905 25.836 25.77 25.776 25.722 25.733 25.664 25.735 25.604
26.115 26.131 26.127 26.076 26.037 26.003 25.944 25.898 25.852 25.782 25.746 25.721 25.697 25.687 25.622 25.564 25.506 25.46 25.415 25.385 25.369 25.358 25.364 25.391 25.423 25.459 25.505 25.555 25.608 25.636 25.658 25.662 25.675 25.669 25.676 25.69 25.684 25.655 25.603 25.55 25.462 25.386 25.244 25.204 25.076 25.061 24.96 24.956 24.859 24.806 24.786 24.794 24.744 24.752 24.756 24.77 24.771 24.746 24.764 24.774 24.745 24.709 24.691 24.65 24.589 24.583 24.602 24.582 24.568 24.553 24.524 24.512 24.487 24.51 24.458 24.424 24.415 24.412 24.407 24.344 24.366 24.382 24.43 24.415 24.455 24.451 24.475 24.523 24.534 24.583 24.595 24.636 24.628 24.628 24.61 24.625 24.686 24.691 24.75 24.675 24.746 24.739 24.743 24.834 24.966 24.654 23.188 23.577 24.925 25.143 25.015 24.972 24.882 24.883 24.83 24.837 24.845 24.865 24.823 24.815 24.795 24.805 24.776 24.792 24.809 24.796 24.832 24.804 24.828 24.774 24.776 24.734 24.752 24.713 24.735 24.694 24.688 24.626 24.619 24.62 24.599 24.581 24.55 24.547 24.528 24.517 24.531 24.477 24.511 24.481 24.516 24.47 24.497 24.477 24.498 24.481 24.479 24.488 24.492 24.492 24.511 24.524 24.542 24.547 24.553 24.568 24.562 24.575 24.6 24.592 24.628 24.63 24.606 24.589 24.587 24.578 24.546 24.522 24.538 24.493 24.525 24.56 24.594 24.6 24.605 24.629 24.639 24.648 24.727 24.958 24.923 25.298 25.658 25.469 25.155 25.124 25.156 25.219 25.29 25.294 25.419 25.463 25.49 25.586 25.677 25.719 25.784 25.807 25.821 25.79 25.769 25.808 25.814 25.922 25.911 25.906 25.925 25.933 25.949 26.002 25.971 25.994 26.07 26.081 26.109 26.069 26.116 26.133 26.116 26.2 26.254 26.244 26.265 26.288 26.348 26.349 26.37 26.394 26.358 26.426 26.418 26.424 26.417 26.447 26.452 26.54 26.538 26.613 26.588 26.621 26.642 26.662 26.631 26.652 26.663 26.705 26.736 26.759 26.79 26.837 26.881 26.926 26.977 26.998 27.04 27.048 27.083 27.082 27.136 27.131 27.185 27.188 27.235 27.272 27.308 27.344 27.386 27.427 27.463 27.507 27.537 27.575 27.606 27.643 27.733 27.772 27.813 27.837 27.888 27.932 27.978 27.994 28.077 28.05 28.114 28.079 28.061 28.065 28.019 27.978 27.927 27.886 27.799 27.706 27.645 27.553 27.41 27.353 27.137 27.098 26.909 26.855 26.756 26.635 26.562 26.491 26.383 26.316 26.268 26.298 26.268 26.301 26.271 26.3 26.28 26.339 26.319 26.347 26.318 26.32 26.241 26.208 26.11 26.019 25.938 25.855 25.818 25.801 25.757 25.684 25.714 25.717 25.8 25.743 25.648 25.572 25.461 25.439 25.538 25.448 25.526 25.562 25.609 25.521 25.587 25.608 25.657 25.734 25.827 25.824 25.795 25.867 25.82 25.915 25.889 25.957 25.965 26 26.076 26.068 26.115 26.142 26.21 26.242 26.333 26.302 26.378 26.38 26.417 26.391 26.478 26.476 26.535 26.564 26.683 26.693 26.714 26.81 26.85 26.904 26.963 26.974 26.981 26.993 27.024 26.972 26.989 26.946 26.956 26.818 26.832 26.764 26.725 26.665 26.611 26.588 26.51 26.469 26.423 26.419 26.374 26.363 26.351 26.332 26.305 26.298 26.265 26.207 26.183 26.086 26.04 26.027 25.999 25.964 25.898 25.887 25.796 25.786 25.733 25.755 25.702 25.72 25.683
26.112 26.096 26.103 26.075 26.049 25.995 25.931 25.91 25.859 25.79 25.763 25.726 25.707 25.682 25.619 25.568 25.524 25.472 25.447 25.416 25.382 25.391 25.394 25.417 25.453 25.465 25.527 25.588 25.645 25.65 25.678 25.669 25.724 25.706 25.681 25.702 25.646 25.64 25.587 25.546 25.419 25.375 25.213 25.178 25.031 25.037 24.926 24.912 24.853 24.823 24.776 24.798 24.746 24.763 24.743 24.695 24.697 24.688 24.69 24.692 24.667 24.641 24.631 24.61 24.583 24.565 24.55 24.591 24.524 24.518 24.48 24.53 24.481 24.47 24.421 24.401 24.402 24.397 24.416 24.373 24.425 24.413 24.431 24.446 24.479 24.53 24.534 24.595 24.588 24.622 24.625 24.67 24.639 24.644 24.646 24.647 24.71 24.729 24.757 24.735 24.739 24.732 24.753 24.852 25.024 24.945 23.238 23.447 24.916 25.092 25.002 24.973 24.874 24.873 24.799 24.827 24.814 24.858 24.805 24.827 24.781 24.819 24.788 24.806 24.81 24.833 24.843 24.815 24.819 24.781 24.807 24.756 24.767 24.721 24.697 24.676 24.658 24.649 24.637 24.641 24.602 24.575 24.554 24.546 24.534 24.517 24.546 24.566 24.534 24.533 24.516 24.507 24.487 24.48 24.471 24.478 24.477 24.489 24.49 24.481 24.484 24.512 24.526 24.539 24.562 24.543 24.571 24.576 24.589 24.623 24.602 24.656 24.613 24.624 24.655 24.715 24.653 24.666 24.685 24.699 24.723 24.751 24.826 24.87 24.964 24.845 24.891 24.919 24.888 25.493 25.661 26.056 25.981 25.72 25.384 25.236 25.305 25.382 25.45 25.557 25.591 25.661 25.753 25.792 25.889 25.937 26.013 26.056 26.049 26.13 26.138 26.097 26.161 26.298 26.288 26.295 26.367 26.379 26.36 26.328 26.357 26.272 26.297 26.28 26.311 26.293 26.315 26.274 26.284 26.256 26.274 26.247 26.282 26.292 26.284 26.312 26.291 26.313 26.299 26.337 26.318 26.326 26.344 26.393 26.373 26.375 26.336 26.351 26.342 26.453 26.541 26.585 26.62 26.631 26.685 26.692 26.732 26.746 26.775 26.787 26.851 26.897 26.954 26.939 27.015 27.024 27.064 27.093 27.139 27.156 27.189 27.216 27.245 27.291 27.332 27.337 27.386 27.423 27.469 27.503 27.558 27.626 27.649 27.726 27.767 27.778 27.823 27.855 27.911 27.928 27.99 28.027 28.088 28.036 28.107 28.099 28.074 28.105 28.061 28.029 27.984 27.919 27.857 27.766 27.656 27.611 27.382 27.322 27.132 27.056 26.95 26.822 26.761 26.603 26.51 26.441 26.358 26.34 26.281 26.289 26.26 26.268 26.257 26.285 26.281 26.309 26.335 26.285 26.316 26.286 26.25 26.185 26.138 26.027 25.947 25.827 25.789 25.74 25.708 25.667 25.644 25.608 25.603 25.647 25.691 25.786 25.721 25.689 25.557 25.478 25.443 25.512 25.561 25.551 25.548 25.554 25.586 25.643 25.677 25.727 25.674 25.747 25.747 25.822 25.757 25.803 25.824 25.815 25.973 25.949 26.044 26.049 26.115 26.147 26.255 26.26 26.321 26.342 26.38 26.39 26.467 26.51 26.524 26.575 26.675 26.713 26.752 26.861 26.928 26.945 26.993 26.989 27.052 27.042 27.051 27.016 27.005 26.988 27.006 26.953 26.915 26.856 26.815 26.774 26.681 26.605 26.552 26.509 26.47 26.461 26.429 26.365 26.37 26.324 26.261 26.255 26.252 26.204 26.131 26.094 26.044 26.042 25.967 25.991 25.903 25.895 25.798 25.802 25.755 25.747 25.729 25.722 25.713
26.138 26.098 26.106 26.078 26.037 25.981 25.894 25.854 25.818 25.777 25.727 25.714 25.711 25.673 25.627 25.596 25.549 25.53 25.501 25.479 25.434 25.442 25.437 25.48 25.491 25.495 25.552 25.587 25.64 25.661 25.673 25.702 25.671 25.689 25.674 25.647 25.615 25.634 25.551 25.494 25.388 25.323 25.183 25.113 25.019 25.005 24.969 24.916 24.853 24.799 24.751 24.723 24.685 24.681 24.683 24.646 24.641 24.641 24.652 24.636 24.66 24.617 24.602 24.59 24.575 24.576 24.559 24.584 24.525 24.548 24.5 24.519 24.495 24.441 24.415 24.378 24.337 24.372 24.397 24.379 24.413 24.4 24.413 24.45 24.503 24.524 24.556 24.579 24.596 24.63 24.666 24.654 24.661 24.655 24.702 24.716 24.782 24.767 24.779 24.754 24.79 24.785 24.762 24.851 24.925 25.304 23.807 23.363 24.661 25.064 25.028 24.958 24.904 24.877 24.845 24.818 24.805 24.805 24.776 24.779 24.758 24.798 24.772 24.81 24.802 24.851 24.794 24.812 24.782 24.799 24.771 24.757 24.745 24.73 24.686 24.659 24.636 24.605 24.619 24.613 24.581 24.561 24.551 24.542 24.532 24.53 24.516 24.502 24.506 24.542 24.505 24.526 24.505 24.488 24.456 24.484 24.483 24.559 24.5 24.519 24.557 24.636 24.683 24.747 24.712 24.696 24.706 24.789 24.756 24.779 24.8 24.826 24.777 24.796 24.794 24.831 24.765 24.787 24.861 24.865 24.913 24.986 25.011 25.03 25.063 25.063 25.089 25.109 25.116 25.072 25.113 25.079 25.134 25.192 25.257 25.36 25.452 25.55 25.633 25.662 25.746 25.821 25.9 25.96 26.002 26.036 26.084 26.159 26.18 26.237 26.284 26.359 26.382 26.43 26.455 26.453 26.465 26.451 26.46 26.388 26.377 26.299 26.301 26.25 26.266 26.228 26.234 26.178 26.166 26.155 26.134 26.176 26.142 26.118 26.127 26.184 26.09 26.113 26.104 26.148 26.078 26.15 26.149 26.129 26.109 26.145 26.17 26.239 26.293 26.366 26.493 26.535 26.623 26.636 26.686 26.679 26.743 26.702 26.755 26.77 26.813 26.855 26.925 26.948 26.994 27.016 27.03 27.05 27.104 27.128 27.174 27.203 27.256 27.285 27.328 27.373 27.409 27.476 27.52 27.536 27.586 27.636 27.683 27.721 27.758 27.792 27.829 27.884 27.956 27.965 27.994 28.073 28.106 28.107 28.138 28.171 28.124 28.138 28.085 28.04 27.992 27.93 27.866 27.787 27.639 27.568 27.382 27.322 27.169 27.026 26.975 26.808 26.742 26.574 26.511 26.413 26.36 26.327 26.278 26.26 26.238 26.22 26.272 26.247 26.294 26.321 26.333 26.281 26.293 26.255 26.218 26.151 26.155 26.026 25.98 25.853 25.79 25.689 25.672 25.635 25.599 25.592 25.53 25.521 25.496 25.621 25.671 25.794 25.823 25.55 25.421 25.425 25.451 25.514 25.453 25.561 25.568 25.607 25.55 25.647 25.611 25.618 25.644 25.627 25.676 25.67 25.712 25.7 25.809 25.8 25.922 25.942 26.014 26.072 26.126 26.189 26.237 26.284 26.322 26.41 26.435 26.52 26.544 26.599 26.683 26.748 26.824 26.884 26.934 26.969 27.006 27.01 27.072 27.08 27.041 27.022 27.038 27.071 27.004 27.02 27.031 26.988 26.829 26.801 26.722 26.678 26.61 26.546 26.528 26.507 26.409 26.355 26.315 26.278 26.268 26.218 26.222 26.194 26.111 26.094 26.096 26.037 25.969 26 25.931 25.882 25.82 25.797 25.772 25.715 25.728 25.707 25.726
26.132 26.104 26.089 26.045 26.014 25.978 25.881 25.827 25.78 25.758 25.72 25.699 25.691 25.647 25.625 25.588 25.572 25.551 25.546 25.508 25.491 25.456 25.464 25.474 25.517 25.529 25.596 25.618 25.633 25.647 25.671 25.679 25.661 25.657 25.645 25.655 25.625 25.582 25.546 25.442 25.341 25.236 25.184 25.087 25.055 25.012 25.02 24.92 24.911 24.814 24.785 24.724 24.737 24.665 24.638 24.641 24.637 24.628 24.637 24.617 24.608 24.608 24.583 24.579 24.554 24.543 24.527 24.555 24.524 24.525 24.483 24.489 24.469 24.405 24.413 24.377 24.332 24.357 24.372 24.382 24.396 24.39 24.427 24.475 24.525 24.58 24.569 24.561 24.62 24.646 24.687 24.673 24.685 24.716 24.742 24.75 24.81 24.803 24.793 24.818 24.874 24.87 24.814 24.85 24.928 25.183 24.086 23.34 24.031 25.052 25.026 24.936 24.943 24.931 24.88 24.795 24.791 24.734 24.73 24.755 24.735 24.749 24.751 24.773 24.795 24.788 24.794 24.79 24.758 24.832 24.731 24.824 24.724 24.804 24.67 24.681 24.742 24.676 24.783 24.754 24.717 24.646 24.713 24.668 24.745 24.679 24.688 24.649 24.641 24.64 24.668 24.692 24.639 24.714 24.615 24.704 24.726 24.784 24.8 24.835 24.848 24.954 24.925 24.964 24.913 24.922 24.921 25.01 24.989 25.009 24.989 24.95 25 24.99 24.971 24.971 24.921 25.021 25.078 25.066 25.191 25.192 25.231 25.262 25.286 25.286 25.281 25.352 25.346 25.293 25.251 25.226 25.29 25.346 25.393 25.46 25.546 25.611 25.708 25.736 25.827 25.885 25.955 26.006 26.04 26.101 26.117 26.157 26.177 26.252 26.299 26.324 26.354 26.403 26.451 26.412 26.414 26.404 26.344 26.305 26.272 26.205 26.164 26.114 26.073 26.042 26.043 26.005 25.947 25.934 25.922 25.956 25.936 25.954 25.927 25.986 25.972 25.994 25.991 26.014 26.022 26.021 26.045 26.05 26.09 26.094 26.158 26.212 26.303 26.363 26.474 26.494 26.605 26.585 26.656 26.666 26.697 26.708 26.746 26.774 26.807 26.871 26.911 26.947 26.95 26.982 26.973 27.044 27.077 27.118 27.151 27.192 27.219 27.275 27.319 27.376 27.44 27.491 27.545 27.564 27.595 27.649 27.68 27.723 27.758 27.824 27.874 27.906 27.962 27.993 28.036 28.103 28.114 28.168 28.136 28.164 28.143 28.138 28.089 28.047 28.016 27.94 27.869 27.817 27.655 27.584 27.469 27.299 27.189 27.014 26.977 26.784 26.712 26.581 26.496 26.415 26.336 26.258 26.286 26.206 26.24 26.231 26.252 26.244 26.274 26.274 26.301 26.277 26.278 26.232 26.211 26.116 26.104 26.011 25.968 25.86 25.787 25.712 25.658 25.607 25.534 25.533 25.495 25.502 25.456 25.41 25.395 25.508 25.666 25.725 25.587 25.451 25.389 25.425 25.413 25.499 25.492 25.526 25.45 25.433 25.521 25.505 25.547 25.542 25.61 25.567 25.625 25.589 25.68 25.745 25.801 25.915 25.92 25.995 26.083 26.186 26.207 26.275 26.297 26.392 26.433 26.502 26.543 26.674 26.714 26.78 26.844 26.903 26.963 26.977 27.012 27.052 27.076 27.087 27.071 27.068 27.018 27.088 27.009 27.038 26.99 26.992 26.912 26.869 26.8 26.766 26.653 26.57 26.532 26.479 26.413 26.399 26.345 26.258 26.206 26.162 26.192 26.13 26.049 26.043 26.022 25.985 25.963 25.972 25.957 25.857 25.827 25.785 25.74 25.704 25.722 25.72 25.744
26.153 26.089 26.069 26.02 25.963 25.944 25.896 25.829 25.779 25.751 25.756 25.718 25.703 25.657 25.632 25.607 25.602 25.559 25.551 25.543 25.548 25.501 25.523 25.538 25.531 25.568 25.6 25.636 25.634 25.684 25.687 25.697 25.653 25.678 25.62 25.642 25.599 25.546 25.485 25.394 25.34 25.197 25.155 25.08 25.078 25.014 25.016 24.939 24.916 24.827 24.801 24.712 24.693 24.631 24.626 24.607 24.643 24.602 24.611 24.598 24.571 24.543 24.546 24.568 24.556 24.544 24.512 24.514 24.513 24.472 24.517 24.438 24.458 24.404 24.43 24.407 24.41 24.401 24.41 24.437 24.403 24.421 24.454 24.499 24.529 24.532 24.59 24.598 24.644 24.666 24.722 24.743 24.775 24.787 24.818 24.803 24.826 24.852 24.886 24.918 24.934 24.93 24.872 24.874 24.895 25.082 24.82 23.245 23.834 25.019 25.04 24.892 24.896 24.851 24.867 24.755 24.728 24.678 24.792 24.779 24.791 24.871 24.957 24.938 25.054 25.02 25.086 25.079 25.107 25.035 25.053 25.146 25.106 25.104 25.011 25.114 25.059 25.172 25.107 25.209 25.105 25.072 25.027 25.028 25.06 24.982 24.973 24.935 24.916 24.968 24.97 25.048 24.999 24.991 24.964 24.995 25.021 25.075 25.113 25.157 25.176 25.195 25.229 25.219 25.189 25.159 25.211 25.223 25.239 25.255 25.279 25.233 25.299 25.281 25.309 25.273 25.314 25.326 25.345 25.338 25.354 25.36 25.407 25.388 25.352 25.339 25.327 25.349 25.336 25.323 25.32 25.325 25.335 25.383 25.418 25.477 25.543 25.561 25.673 25.689 25.76 25.833 25.876 25.938 25.939 26.027 26.015 26.107 26.125 26.236 26.207 26.23 26.256 26.271 26.313 26.298 26.282 26.266 26.224 26.177 26.143 26.109 26.037 26.025 25.967 25.979 25.932 25.937 25.879 25.891 25.854 25.87 25.87 25.913 25.883 25.92 25.922 25.938 25.974 25.948 25.986 25.975 26.009 26.011 26.054 26.072 26.142 26.192 26.26 26.316 26.389 26.452 26.529 26.586 26.644 26.674 26.693 26.727 26.743 26.783 26.802 26.851 26.887 26.931 26.916 26.962 26.958 27.021 27.066 27.103 27.116 27.174 27.187 27.243 27.335 27.376 27.425 27.486 27.542 27.569 27.629 27.648 27.731 27.759 27.814 27.861 27.907 27.945 27.99 28.052 28.077 28.108 28.103 28.173 28.168 28.182 28.167 28.118 28.111 28.076 28.003 27.925 27.885 27.775 27.676 27.567 27.483 27.265 27.202 26.968 26.9 26.783 26.683 26.574 26.487 26.433 26.341 26.276 26.285 26.226 26.233 26.214 26.216 26.236 26.237 26.239 26.265 26.252 26.256 26.207 26.151 26.102 26.055 25.98 25.885 25.844 25.782 25.726 25.66 25.604 25.525 25.501 25.443 25.42 25.416 25.408 25.39 25.412 25.449 25.598 25.745 25.675 25.449 25.453 25.412 25.498 25.484 25.487 25.403 25.341 25.396 25.434 25.477 25.419 25.495 25.482 25.515 25.547 25.592 25.679 25.679 25.863 25.834 25.963 26.019 26.09 26.081 26.31 26.256 26.334 26.41 26.473 26.571 26.703 26.746 26.787 26.852 26.936 27.015 27.061 26.985 27.047 27.056 27.098 27.063 27.127 27.066 27.106 27.074 27.07 27.011 26.956 26.939 26.878 26.798 26.712 26.683 26.672 26.611 26.54 26.455 26.42 26.373 26.297 26.229 26.21 26.166 26.116 26.048 26.025 26.016 25.951 25.954 25.934 26.021 25.855 25.811 25.731 25.708 25.662 25.706 25.709 25.72
26.119 26.061 26.049 25.972 25.934 25.925 25.889 25.829 25.786 25.771 25.752 25.728 25.722 25.687 25.656 25.64 25.64 25.598 25.57 25.573 25.558 25.562 25.552 25.572 25.551 25.575 25.598 25.643 25.626 25.657 25.662 25.663 25.654 25.617 25.589 25.603 25.579 25.507 25.455 25.398 25.312 25.22 25.168 25.037 25.008 24.993 25.009 24.938 24.895 24.835 24.781 24.723 24.677 24.61 24.631 24.638 24.576 24.584 24.565 24.549 24.569 24.577 24.564 24.574 24.586 24.526 24.525 24.53 24.523 24.51 24.525 24.491 24.525 24.483 24.481 24.429 24.452 24.462 24.46 24.462 24.47 24.502 24.492 24.526 24.556 24.591 24.651 24.651 24.706 24.712 24.738 24.801 24.83 24.882 24.883 24.92 24.93 24.946 24.965 24.998 24.944 24.906 24.89 24.848 24.87 25.175 26.087 23.88 23.784 24.786 25.058 24.988 24.988 24.999 24.955 24.905 24.911 24.942 25.188 25.161 25.125 25.158 25.288 25.285 25.402 25.33 25.409 25.331 25.334 25.257 25.331 25.346 25.355 25.32 25.266 25.247 25.294 25.323 25.335 25.302 25.262 25.272 25.258 25.224 25.222 25.198 25.182 25.2 25.254 25.222 25.295 25.276 25.295 25.184 25.202 25.208 25.266 25.277 25.325 25.387 25.371 25.412 25.402 25.405 25.392 25.37 25.385 25.364 25.387 25.39 25.403 25.387 25.41 25.385 25.403 25.35 25.372 25.343 25.335 25.342 25.303 25.317 25.296 25.307 25.286 25.25 25.228 25.253 25.202 25.226 25.204 25.183 25.207 25.181 25.221 25.274 25.336 25.335 25.465 25.496 25.582 25.64 25.696 25.785 25.831 25.907 25.936 26.023 26.042 26.099 26.13 26.171 26.201 26.221 26.243 26.251 26.245 26.238 26.189 26.169 26.079 26.078 25.994 25.983 25.935 25.968 25.907 25.918 25.882 25.882 25.815 25.829 25.841 25.846 25.879 25.891 25.918 25.917 25.936 25.938 25.964 25.939 25.973 25.977 26.02 26.051 26.116 26.184 26.239 26.3 26.323 26.389 26.48 26.564 26.581 26.621 26.629 26.71 26.702 26.773 26.758 26.827 26.826 26.885 26.899 26.926 26.936 26.975 27.015 27.038 27.066 27.137 27.171 27.227 27.297 27.366 27.412 27.483 27.571 27.575 27.647 27.694 27.799 27.786 27.861 27.891 27.921 27.963 28.008 28.058 28.097 28.133 28.147 28.19 28.202 28.19 28.212 28.147 28.137 28.039 28.002 27.91 27.839 27.751 27.668 27.502 27.431 27.239 27.186 27.008 26.896 26.822 26.662 26.624 26.446 26.396 26.322 26.283 26.258 26.22 26.196 26.19 26.182 26.196 26.189 26.219 26.239 26.241 26.23 26.183 26.096 26.099 26.044 25.986 25.855 25.861 25.749 25.712 25.67 25.624 25.589 25.524 25.453 25.398 25.391 25.392 25.398 25.4 25.354 25.388 25.616 25.809 25.628 25.514 25.417 25.39 25.43 25.399 25.414 25.351 25.387 25.372 25.45 25.389 25.422 25.473 25.494 25.559 25.462 25.605 25.569 25.738 25.731 25.86 25.939 25.976 26.017 26.109 26.23 26.341 26.43 26.484 26.589 26.692 26.768 26.812 26.853 26.924 27.03 27.093 27.049 27.086 27.022 27.077 27.07 27.098 27.055 27.092 27.083 27.092 27.074 27.002 26.95 26.928 26.855 26.74 26.696 26.671 26.589 26.563 26.461 26.417 26.372 26.316 26.231 26.213 26.166 26.084 26.053 25.988 25.974 25.921 25.96 25.91 25.959 25.83 25.786 25.712 25.67 25.669 25.64 25.703 25.668
26.067 26.029 25.997 25.947 25.913 25.899 25.875 25.828 25.797 25.779 25.763 25.731 25.714 25.712 25.693 25.676 25.657 25.639 25.617 25.657 25.601 25.626 25.586 25.628 25.593 25.618 25.595 25.611 25.656 25.667 25.673 25.663 25.661 25.617 25.612 25.58 25.574 25.508 25.46 25.394 25.305 25.199 25.112 25.037 25.027 25.015 24.981 24.929 24.903 24.858 24.781 24.754 24.675 24.641 24.618 24.624 24.582 24.602 24.572 24.585 24.585 24.568 24.608 24.556 24.592 24.568 24.564 24.581 24.586 24.571 24.633 24.574 24.579 24.588 24.578 24.521 24.509 24.534 24.514 24.525 24.51 24.531 24.554 24.59 24.605 24.617 24.663 24.684 24.739 24.817 24.786 24.756 24.861 24.863 24.858 24.897 24.976 24.987 24.98 24.977 25.004 25.078 25.082 24.971 25.053 25.126 25.113 23.855 23.695 24.615 25.122 25.156 25.097 25.107 25.052 25.074 25.195 25.321 25.439 25.465 25.461 25.468 25.463 25.443 25.513 25.512 25.49 25.387 25.383 25.296 25.346 25.263 25.32 25.269 25.272 25.251 25.279 25.318 25.328 25.321 25.312 25.342 25.293 25.289 25.26 25.263 25.274 25.251 25.29 25.275 25.309 25.269 25.286 25.246 25.283 25.296 25.339 25.36 25.378 25.369 25.37 25.371 25.403 25.41 25.43 25.403 25.395 25.373 25.377 25.364 25.35 25.34 25.34 25.339 25.349 25.303 25.282 25.233 25.18 25.182 25.157 25.136 25.108 25.056 25.031 25.025 24.978 24.993 24.956 24.974 24.988 25.005 24.988 24.983 25.025 25.063 25.15 25.21 25.32 25.408 25.474 25.548 25.61 25.711 25.773 25.857 25.935 25.981 26.06 26.081 26.144 26.157 26.216 26.22 26.233 26.251 26.228 26.219 26.166 26.165 26.104 26.083 25.986 25.976 25.94 25.926 25.922 25.889 25.892 25.856 25.837 25.822 25.843 25.834 25.893 25.865 25.915 25.904 25.931 25.921 25.94 25.947 25.968 25.992 26.012 26.066 26.078 26.123 26.165 26.274 26.286 26.39 26.46 26.559 26.549 26.605 26.608 26.682 26.693 26.736 26.747 26.775 26.779 26.833 26.851 26.895 26.911 26.94 26.942 27.002 27.054 27.091 27.149 27.205 27.282 27.341 27.414 27.488 27.558 27.61 27.675 27.71 27.754 27.788 27.833 27.906 27.927 27.97 28.01 28.037 28.096 28.132 28.178 28.158 28.225 28.189 28.198 28.156 28.149 28.094 28.03 27.944 27.841 27.76 27.69 27.504 27.444 27.284 27.172 27.056 26.835 26.786 26.616 26.57 26.433 26.37 26.303 26.263 26.225 26.208 26.207 26.195 26.166 26.167 26.174 26.196 26.186 26.213 26.173 26.147 26.077 26.104 25.994 25.994 25.893 25.866 25.79 25.709 25.685 25.595 25.556 25.534 25.504 25.43 25.418 25.388 25.412 25.377 25.41 25.367 25.416 25.531 25.714 25.687 25.594 25.317 25.427 25.431 25.435 25.366 25.365 25.404 25.365 25.368 25.396 25.509 25.434 25.441 25.446 25.492 25.476 25.568 25.627 25.718 25.811 25.832 25.983 26.037 26.238 26.305 26.438 26.463 26.614 26.646 26.788 26.826 26.873 26.94 26.977 27.027 27.047 27.086 27.035 27.053 27.075 27.09 27.082 27.09 27.063 27.032 27.04 26.982 26.988 26.907 26.871 26.815 26.748 26.696 26.574 26.578 26.476 26.404 26.332 26.28 26.217 26.142 26.139 26.096 26.033 25.985 25.954 25.914 25.906 25.881 25.875 25.823 25.763 25.776 25.758 25.74 25.626 25.681 25.72
26.02 26.008 25.995 25.945 25.916 25.872 25.846 25.807 25.771 25.799 25.765 25.74 25.77 25.76 25.721 25.721 25.699 25.702 25.686 25.716 25.689 25.701 25.662 25.666 25.645 25.644 25.671 25.658 25.691 25.71 25.719 25.7 25.69 25.635 25.612 25.585 25.567 25.521 25.476 25.395 25.283 25.214 25.107 25.093 24.989 25.029 24.984 24.983 24.898 24.909 24.817 24.803 24.736 24.703 24.657 24.649 24.654 24.642 24.637 24.643 24.685 24.625 24.657 24.638 24.656 24.643 24.664 24.657 24.648 24.644 24.666 24.669 24.631 24.696 24.664 24.567 24.524 24.573 24.614 24.566 24.622 24.716 24.645 24.593 24.741 24.692 24.799 24.586 24.384 24.515 24.562 24.466 24.305 24.475 24.188 24.618 24.189 24.559 24.031 24.5 24.578 24.756 25.118 25.09 25.122 24.852 24.425 24.454 23.547 24.487 25.227 25.248 25.181 25.241 25.17 25.242 25.321 25.414 25.428 25.477 25.47 25.501 25.501 25.483 25.468 25.463 25.433 25.39 25.357 25.334 25.355 25.308 25.342 25.315 25.306 25.294 25.335 25.333 25.35 25.361 25.339 25.352 25.31 25.292 25.286 25.284 25.248 25.254 25.271 25.246 25.286 25.262 25.24 25.232 25.303 25.281 25.317 25.338 25.34 25.308 25.292 25.313 25.294 25.29 25.311 25.293 25.28 25.226 25.243 25.217 25.204 25.218 25.187 25.147 25.137 25.089 25.044 25.041 24.999 24.988 24.953 24.95 24.912 24.902 24.88 24.859 24.868 24.827 24.866 24.858 24.902 24.891 24.941 24.964 25.003 25.033 25.124 25.201 25.262 25.359 25.39 25.489 25.555 25.644 25.735 25.806 25.895 25.947 26.031 26.065 26.142 26.17 26.215 26.249 26.255 26.284 26.251 26.239 26.181 26.181 26.14 26.073 26.035 25.989 25.957 25.91 25.914 25.892 25.883 25.872 25.885 25.864 25.91 25.901 25.925 25.912 25.935 25.916 25.938 25.95 25.923 25.932 25.923 25.979 25.964 26.057 26.067 26.118 26.144 26.248 26.291 26.392 26.447 26.497 26.524 26.582 26.586 26.616 26.652 26.674 26.707 26.723 26.76 26.775 26.812 26.819 26.861 26.891 26.908 26.943 27.047 27.084 27.14 27.213 27.281 27.347 27.399 27.501 27.546 27.605 27.653 27.707 27.741 27.804 27.829 27.893 27.925 27.995 28.039 28.066 28.109 28.137 28.187 28.189 28.23 28.247 28.24 28.197 28.156 28.119 28.032 27.969 27.861 27.767 27.671 27.519 27.4 27.313 27.094 27.05 26.838 26.749 26.606 26.52 26.463 26.369 26.334 26.259 26.206 26.178 26.174 26.161 26.126 26.096 26.143 26.162 26.169 26.183 26.151 26.143 26.081 26.07 26.017 25.975 25.924 25.855 25.797 25.71 25.668 25.623 25.577 25.512 25.501 25.452 25.451 25.409 25.44 25.403 25.406 25.383 25.441 25.405 25.511 25.732 25.8 25.409 25.39 25.426 25.411 25.373 25.291 25.482 25.333 25.369 25.437 25.425 25.418 25.434 25.517 25.518 25.469 25.489 25.598 25.605 25.712 25.77 25.948 25.968 26.198 26.28 26.422 26.46 26.61 26.678 26.791 26.855 26.922 26.947 26.977 27.011 27.041 27.06 27.049 27.035 27.066 27.057 27.074 27.012 27.059 27.012 27.005 26.986 27.009 26.985 26.893 26.86 26.796 26.742 26.684 26.623 26.562 26.465 26.39 26.31 26.222 26.163 26.125 26.103 26.041 25.983 25.937 25.913 25.894 25.867 25.838 25.799 25.729 25.745 25.687 25.741 25.696 25.654 25.637
25.984 25.968 25.964 25.94 25.88 25.851 25.848 25.839 25.823 25.826 25.817 25.799 25.821 25.813 25.771 25.776 25.741 25.755 25.734 25.746 25.752 25.731 25.737 25.705 25.747 25.723 25.727 25.718 25.773 25.739 25.734 25.738 25.732 25.727 25.637 25.599 25.532 25.536 25.47 25.426 25.329 25.269 25.139 25.045 24.978 24.985 24.914 24.925 24.895 24.92 24.835 24.829 24.78 24.757 24.716 24.729 24.728 24.71 24.649 24.733 24.804 24.794 24.786 24.832 24.774 24.768 24.838 24.734 24.726 24.702 24.595 24.445 24.475 24.413 24.579 24.412 24.478 24.255 24.213 24.291 24.087 24.125 24.193 24.197 24.007 24.293 24.085 24.468 24.339 24.455 24.376 24.931 24.64 25.009 25.114 24.98 25.066 25.2 25.298 25.256 25.307 25.289 25.292 25.275 25.351 25.284 25.243 25.083 24.461 25.356 25.346 25.36 25.29 25.353 25.313 25.351 25.371 25.414 25.439 25.494 25.487 25.513 25.465 25.499 25.427 25.466 25.401 25.383 25.33 25.356 25.334 25.338 25.314 25.304 25.329 25.291 25.29 25.336 25.269 25.249 25.258 25.289 25.159 25.15 25.153 25.149 25.085 25.074 25.091 25.066 25.102 25.111 25.078 25.093 25.116 25.121 25.131 25.169 25.149 25.181 25.141 25.114 25.134 25.121 25.109 25.091 25.109 25.096 25.085 25.107 25.046 25.053 25.048 25.044 25.007 25.021 24.976 24.959 24.927 24.899 24.87 24.873 24.858 24.822 24.816 24.769 24.791 24.774 24.798 24.779 24.84 24.837 24.883 24.913 24.953 25.029 25.088 25.156 25.214 25.326 25.382 25.474 25.525 25.605 25.715 25.764 25.886 25.914 26.03 26.072 26.131 26.208 26.228 26.273 26.278 26.305 26.287 26.288 26.248 26.207 26.197 26.125 26.095 25.997 25.993 25.902 25.937 25.879 25.903 25.86 25.87 25.852 25.886 25.885 25.89 25.921 25.881 25.866 25.901 25.886 25.902 25.927 25.884 25.967 25.969 26.033 26.036 26.105 26.158 26.225 26.301 26.369 26.43 26.477 26.514 26.531 26.56 26.574 26.638 26.616 26.666 26.648 26.735 26.726 26.792 26.799 26.832 26.866 26.925 26.948 27.023 27.081 27.12 27.202 27.245 27.339 27.376 27.48 27.502 27.598 27.634 27.737 27.744 27.798 27.832 27.904 27.94 28.009 28.032 28.107 28.153 28.187 28.23 28.239 28.286 28.283 28.246 28.249 28.173 28.166 28.053 27.977 27.862 27.757 27.677 27.566 27.375 27.28 27.049 26.973 26.84 26.706 26.58 26.476 26.436 26.319 26.28 26.242 26.207 26.158 26.158 26.151 26.133 26.132 26.162 26.142 26.152 26.142 26.157 26.118 26.117 26.067 26.055 26.001 25.965 25.876 25.845 25.76 25.713 25.657 25.617 25.57 25.505 25.476 25.443 25.438 25.414 25.423 25.424 25.425 25.423 25.412 25.399 25.586 25.795 25.614 25.338 25.389 25.491 25.432 25.381 25.454 25.314 25.357 25.437 25.427 25.366 25.377 25.449 25.485 25.533 25.448 25.552 25.6 25.684 25.691 25.875 25.963 26.134 26.244 26.391 26.518 26.566 26.702 26.777 26.871 26.91 26.945 26.99 27.027 27.018 27.002 27.041 26.999 27.046 27.001 27.017 26.972 26.996 26.994 26.995 26.985 26.962 26.95 26.907 26.901 26.873 26.757 26.68 26.655 26.593 26.538 26.478 26.439 26.295 26.234 26.185 26.108 26.066 26.021 25.931 25.918 25.832 25.865 25.793 25.766 25.703 25.756 25.85 25.827 25.698 25.676 25.682
26.052 25.955 25.955 25.952 25.89 25.878 25.873 25.888 25.884 25.895 25.883 25.871 25.873 25.867 25.833 25.815 25.784 25.808 25.779 25.759 25.773 25.756 25.777 25.758 25.797 25.746 25.772 25.768 25.796 25.758 25.798 25.742 25.709 25.677 25.638 25.627 25.539 25.496 25.409 25.38 25.26 25.211 25.103 25.005 24.932 24.882 24.879 24.925 24.974 24.777 24.965 24.783 24.79 24.779 24.705 24.701 24.691 24.698 24.666 24.484 24.54 24.37 24.328 24.32 24.367 24.311 24.309 24.33 24.136 24.131 24.368 24.449 24.403 24.442 24.588 24.455 24.704 24.684 24.855 24.739 24.793 25.009 24.927 24.969 25.073 25.204 25.036 25.238 25.287 25.351 25.353 25.369 25.405 25.423 25.445 25.458 25.496 25.472 25.488 25.482 25.462 25.446 25.402 25.406 25.4 25.432 25.404 25.42 25.315 25.385 25.349 25.356 25.344 25.351 25.342 25.359 25.391 25.439 25.411 25.437 25.437 25.427 25.374 25.319 25.319 25.358 25.297 25.206 25.143 25.1 25.079 25.016 25.039 25.078 24.977 25.017 24.973 25.022 24.98 24.971 24.912 24.938 24.893 24.911 24.901 24.915 24.904 24.916 24.908 24.909 24.931 24.957 24.948 25.03 25.014 25.041 25.029 25.042 25.074 25.061 25.078 25.118 25.097 25.056 25.031 25.036 25.025 25.003 25.011 24.992 24.987 24.997 24.993 24.98 24.946 24.955 24.928 24.898 24.874 24.834 24.815 24.798 24.777 24.76 24.787 24.745 24.743 24.741 24.742 24.746 24.784 24.78 24.802 24.867 24.908 24.992 25.025 25.11 25.158 25.275 25.348 25.444 25.54 25.605 25.67 25.765 25.861 25.934 26.023 26.115 26.183 26.257 26.292 26.333 26.334 26.328 26.364 26.324 26.36 26.271 26.249 26.135 26.137 26.035 26.011 25.949 25.938 25.898 25.926 25.889 25.889 25.902 25.885 25.914 25.884 25.925 25.891 25.855 25.871 25.905 25.911 25.928 25.917 25.965 26.014 26.016 26.049 26.088 26.178 26.191 26.277 26.312 26.398 26.432 26.502 26.466 26.54 26.534 26.611 26.609 26.616 26.629 26.69 26.701 26.746 26.775 26.808 26.835 26.898 26.936 26.993 27.042 27.095 27.181 27.227 27.319 27.376 27.459 27.494 27.593 27.633 27.716 27.746 27.827 27.862 27.932 27.995 28.047 28.074 28.137 28.197 28.219 28.258 28.304 28.322 28.326 28.279 28.279 28.176 28.152 28.036 27.954 27.88 27.761 27.63 27.541 27.372 27.258 27.033 26.888 26.792 26.617 26.537 26.434 26.383 26.298 26.281 26.228 26.213 26.211 26.185 26.173 26.152 26.116 26.145 26.132 26.168 26.128 26.147 26.106 26.106 26.055 26.051 25.963 25.977 25.89 25.856 25.785 25.742 25.707 25.652 25.622 25.539 25.499 25.427 25.414 25.418 25.442 25.434 25.444 25.42 25.452 25.486 25.505 25.578 25.689 25.436 25.444 25.419 25.43 25.445 25.412 25.395 25.397 25.441 25.39 25.397 25.424 25.442 25.429 25.569 25.514 25.544 25.564 25.614 25.66 25.779 25.96 26.054 26.285 26.369 26.557 26.633 26.721 26.769 26.838 26.902 26.975 27.01 26.983 27.042 26.988 26.998 26.972 27.009 26.969 26.98 26.952 26.945 26.961 26.949 26.968 26.939 26.93 26.889 26.866 26.859 26.789 26.726 26.664 26.67 26.592 26.507 26.477 26.423 26.336 26.213 26.16 26.091 26.071 25.997 25.965 25.864 25.872 25.791 25.79 25.722 25.694 25.748 25.772 25.807 25.657 25.758
26.277 26.122 25.92 25.948 25.93 25.93 25.95 25.921 25.919 25.918 25.916 25.92 25.904 25.868 25.85 25.829 25.814 25.79 25.79 25.782 25.799 25.782 25.779 25.767 25.759 25.725 25.755 25.76 25.747 25.808 25.794 25.748 25.708 25.679 25.671 25.631 25.593 25.532 25.487 25.435 25.397 25.331 25.276 24.968 24.806 24.811 24.649 24.201 24.205 24.213 24.374 24.296 24.277 24.293 24.231 24.187 24.369 24.498 24.564 24.86 24.771 24.775 24.895 25.198 24.882 25.001 25.024 25.047 25.061 25.073 25.04 25.123 25.108 25.082 25.18 25.152 25.168 25.174 25.184 25.192 25.213 25.219 25.23 25.243 25.268 25.297 25.297 25.323 25.334 25.33 25.361 25.361 25.417 25.386 25.444 25.419 25.469 25.428 25.427 25.415 25.436 25.441 25.416 25.422 25.418 25.43 25.407 25.38 25.378 25.343 25.326 25.33 25.342 25.271 25.318 25.281 25.282 25.281 25.241 25.157 25.137 25.144 25.117 25.088 25.051 25.052 24.965 24.94 24.87 24.855 24.818 24.799 24.79 24.798 24.781 24.78 24.796 24.787 24.77 24.79 24.809 24.796 24.81 24.823 24.844 24.857 24.83 24.872 24.846 24.892 24.904 24.929 24.937 24.98 24.994 25.026 25.023 25.037 25.04 25.053 25.058 25.06 25.063 25.064 25.026 24.959 24.939 24.915 24.921 24.897 24.902 24.91 24.922 24.861 24.842 24.818 24.832 24.809 24.816 24.789 24.787 24.74 24.687 24.692 24.695 24.681 24.679 24.713 24.709 24.72 24.672 24.695 24.761 24.883 24.897 24.994 25.008 25.09 25.144 25.268 25.312 25.407 25.498 25.584 25.673 25.743 25.885 25.993 26.019 26.17 26.218 26.273 26.309 26.387 26.34 26.353 26.4 26.342 26.347 26.263 26.22 26.166 26.1 26.044 25.977 25.957 25.947 25.943 25.92 25.919 25.889 25.936 25.912 25.934 25.9 25.903 25.859 25.909 25.876 25.898 25.916 25.92 25.949 25.971 25.987 25.956 26.04 26.067 26.164 26.181 26.26 26.27 26.372 26.375 26.396 26.431 26.519 26.525 26.566 26.566 26.588 26.649 26.694 26.701 26.72 26.755 26.771 26.825 26.847 26.898 26.962 27.038 27.063 27.129 27.212 27.278 27.368 27.42 27.498 27.57 27.638 27.702 27.78 27.831 27.9 27.939 28.003 28.075 28.148 28.184 28.218 28.268 28.307 28.319 28.319 28.349 28.284 28.248 28.184 28.12 28.063 27.966 27.885 27.743 27.612 27.484 27.283 27.161 27.067 26.826 26.797 26.564 26.537 26.443 26.387 26.329 26.278 26.237 26.194 26.188 26.158 26.148 26.165 26.126 26.14 26.133 26.169 26.127 26.133 26.107 26.102 26.057 26.025 25.988 25.969 25.911 25.891 25.82 25.759 25.719 25.661 25.647 25.57 25.543 25.451 25.427 25.427 25.44 25.43 25.477 25.418 25.467 25.465 25.522 25.519 25.622 25.68 25.536 25.414 25.406 25.471 25.447 25.468 25.363 25.428 25.355 25.421 25.445 25.399 25.408 25.46 25.449 25.483 25.52 25.557 25.685 25.726 25.927 25.999 26.259 26.35 26.624 26.598 26.766 26.828 26.901 26.949 26.941 26.961 26.964 26.992 26.987 26.985 26.997 26.943 26.958 26.916 26.924 26.9 26.922 26.892 26.923 26.946 26.925 26.905 26.863 26.872 26.85 26.773 26.702 26.705 26.642 26.593 26.56 26.48 26.327 26.284 26.266 26.166 26.108 26.024 25.993 25.912 25.872 25.838 25.825 25.804 25.757 25.758 25.701 25.758 25.652 25.717
26.375 26.247 26.101 25.919 25.905 25.927 25.937 25.924 25.908 25.906 25.887 25.901 25.91 25.908 25.838 25.831 25.858 25.797 25.797 25.811 25.778 25.815 25.832 25.811 25.794 25.783 25.787 25.826 25.792 25.802 25.772 25.745 25.725 25.704 25.688 25.644 25.602 25.593 25.559 25.504 25.495 25.365 25.301 25.16 24.706 24.628 24.755 24.859 25.058 24.863 25.057 25.031 25.105 25.055 25.108 25.168 25.095 25.18 25.224 25.248 25.206 25.252 25.266 25.266 25.232 25.241 25.257 25.29 25.293 25.253 25.237 25.247 25.287 25.21 25.258 25.225 25.255 25.224 25.251 25.246 25.211 25.225 25.224 25.232 25.203 25.231 25.235 25.276 25.272 25.272 25.267 25.32 25.351 25.292 25.323 25.338 25.356 25.282 25.298 25.336 25.349 25.4 25.373 25.378 25.366 25.397 25.358 25.379 25.368 25.073 25.163 25.219 25.205 25.177 25.176 25.178 25.165 25.041 25.028 24.992 24.999 24.96 24.984 24.919 24.953 24.898 24.9 24.853 24.823 24.79 24.769 24.773 24.719 24.73 24.741 24.74 24.744 24.748 24.734 24.719 24.729 24.717 24.742 24.739 24.795 24.771 24.802 24.806 24.84 24.834 24.893 24.908 24.913 24.934 24.979 25.032 25.019 25.018 25.055 25.026 25.038 25.022 25.05 25.033 25.026 24.977 24.893 24.861 24.861 24.822 24.794 24.831 24.82 24.768 24.766 24.746 24.762 24.763 24.766 24.763 24.74 24.699 24.684 24.649 24.658 24.63 24.619 24.652 24.641 24.641 24.607 24.654 24.691 24.748 24.83 24.907 24.95 25.025 25.102 25.174 25.267 25.362 25.452 25.601 25.648 25.738 25.818 25.99 26.013 26.165 26.248 26.323 26.371 26.412 26.444 26.42 26.415 26.391 26.393 26.32 26.264 26.175 26.083 26.061 25.99 25.995 25.933 25.975 25.905 25.945 25.885 25.897 25.882 25.886 25.867 25.86 25.875 25.883 25.887 25.877 25.914 25.892 25.945 25.936 25.948 25.954 26.03 25.997 26.061 26.127 26.225 26.282 26.316 26.347 26.361 26.436 26.478 26.52 26.547 26.554 26.559 26.609 26.65 26.695 26.694 26.733 26.757 26.825 26.82 26.902 26.947 26.979 27.058 27.123 27.193 27.264 27.369 27.42 27.525 27.547 27.635 27.689 27.78 27.826 27.952 27.966 28.058 28.092 28.161 28.196 28.251 28.301 28.291 28.332 28.314 28.325 28.277 28.259 28.196 28.112 28.066 27.894 27.841 27.663 27.545 27.452 27.314 27.097 27.016 26.799 26.748 26.606 26.506 26.423 26.332 26.294 26.239 26.241 26.188 26.207 26.151 26.124 26.146 26.152 26.174 26.154 26.15 26.143 26.125 26.11 26.108 26.088 26.052 26.005 25.962 25.953 25.878 25.847 25.797 25.768 25.724 25.689 25.658 25.597 25.525 25.473 25.43 25.453 25.474 25.498 25.456 25.479 25.455 25.454 25.467 25.515 25.692 25.767 25.584 25.436 25.464 25.465 25.541 25.436 25.531 25.465 25.57 25.435 25.386 25.383 25.398 25.428 25.373 25.5 25.548 25.637 25.699 25.942 26.011 26.266 26.394 26.594 26.609 26.77 26.848 26.862 26.926 26.96 26.963 26.964 26.999 27.027 26.976 26.998 26.924 26.958 26.875 26.902 26.884 26.902 26.914 26.863 26.906 26.914 26.927 26.873 26.844 26.827 26.801 26.782 26.741 26.692 26.649 26.604 26.57 26.446 26.386 26.337 26.241 26.167 26.111 26.026 25.965 25.934 25.9 25.83 25.896 25.825 25.835 25.765 25.794 25.748 25.741
26.391 26.356 26.349 26.214 26.198 26.13 26.11 26.096 25.997 26.007 25.975 25.998 25.952 25.934 25.91 25.894 25.873 25.865 25.832 25.846 25.843 25.851 25.774 25.824 25.789 25.817 25.784 25.811 25.813 25.825 25.776 25.765 25.727 25.747 25.754 25.732 25.663 25.652 25.657 25.598 25.601 25.52 25.479 25.414 25.367 25.356 25.34 25.332 25.313 25.331 25.326 25.335 25.301 25.32 25.282 25.274 25.269 25.289 25.28 25.286 25.277 25.294 25.29 25.289 25.269 25.266 25.255 25.286 25.299 25.238 25.244 25.201 25.223 25.173 25.187 25.117 25.17 25.164 25.133 25.117 25.056 25.051 24.998 25.009 24.928 24.971 24.978 25.058 24.975 25.03 25.035 25.026 25.075 25.109 25.119 25.092 25.083 25.077 25.044 25.135 25.11 25.102 25.076 25.143 25.201 25.233 25.222 25.001 24.557 23.952 24.572 25.003 25.067 25.034 25.076 25.036 25.049 24.985 24.944 24.944 24.944 24.902 24.914 24.882 24.889 24.849 24.851 24.797 24.81 24.758 24.726 24.676 24.669 24.656 24.667 24.682 24.702 24.689 24.662 24.641 24.663 24.654 24.658 24.701 24.713 24.687 24.709 24.75 24.806 24.801 24.868 24.897 24.941 24.934 24.988 25.006 25.032 25.016 25.045 25.028 25.045 25.017 24.999 24.992 25.034 24.967 24.927 24.914 24.924 24.832 24.828 24.844 24.879 24.825 24.783 24.745 24.726 24.711 24.681 24.663 24.686 24.622 24.621 24.579 24.576 24.597 24.587 24.568 24.547 24.545 24.586 24.588 24.62 24.664 24.76 24.787 24.852 24.931 25.035 25.107 25.27 25.314 25.445 25.545 25.648 25.75 25.867 25.998 26.095 26.2 26.3 26.368 26.431 26.459 26.492 26.482 26.464 26.445 26.37 26.344 26.211 26.18 26.081 26.077 26.01 26.01 25.942 25.952 25.915 25.908 25.887 25.883 25.881 25.859 25.855 25.839 25.86 25.855 25.865 25.843 25.89 25.853 25.897 25.867 25.898 25.932 25.995 25.989 26.033 26.09 26.157 26.245 26.265 26.33 26.335 26.415 26.435 26.503 26.49 26.537 26.522 26.601 26.615 26.657 26.66 26.694 26.732 26.792 26.812 26.882 26.941 27.006 27.087 27.148 27.231 27.286 27.371 27.426 27.512 27.58 27.669 27.756 27.837 27.885 27.957 28.015 28.078 28.13 28.18 28.23 28.268 28.301 28.307 28.331 28.326 28.281 28.305 28.208 28.207 28.11 28.007 27.869 27.788 27.658 27.518 27.395 27.266 27.082 27.016 26.778 26.662 26.567 26.422 26.395 26.31 26.328 26.239 26.234 26.196 26.183 26.157 26.155 26.168 26.173 26.185 26.193 26.173 26.177 26.15 26.144 26.114 26.102 26.05 26.049 25.969 25.981 25.895 25.897 25.854 25.803 25.769 25.729 25.684 25.639 25.604 25.547 25.504 25.463 25.474 25.54 25.51 25.49 25.483 25.472 25.468 25.453 25.606 25.843 25.759 25.422 25.49 25.523 25.596 25.487 25.503 25.505 25.491 25.476 25.391 25.408 25.377 25.406 25.347 25.436 25.451 25.593 25.703 25.845 25.997 26.145 26.316 26.459 26.62 26.848 26.945 26.886 26.94 26.973 26.983 26.964 26.972 26.999 26.967 26.967 26.924 26.932 26.858 26.866 26.872 26.888 26.887 26.875 26.892 26.931 26.9 26.891 26.845 26.821 26.823 26.801 26.778 26.767 26.681 26.678 26.647 26.578 26.515 26.404 26.299 26.172 26.18 26.067 26.103 25.941 25.965 25.896 25.952 25.906 25.862 25.812 25.843 25.811 25.792
26.369 26.354 26.344 26.341 26.332 26.287 26.252 26.23 26.152 26.097 26.088 26.038 26.013 26.006 25.971 25.986 25.957 25.973 25.951 25.918 25.915 25.938 25.881 25.892 25.887 25.901 25.865 25.878 25.859 25.877 25.852 25.82 25.78 25.784 25.787 25.764 25.746 25.715 25.707 25.667 25.633 25.569 25.509 25.493 25.429 25.358 25.342 25.361 25.332 25.352 25.294 25.363 25.267 25.284 25.24 25.255 25.184 25.193 25.209 25.235 25.216 25.211 25.144 25.142 25.12 25.101 25.113 25.077 24.983 24.964 25.007 24.945 24.951 24.906 24.889 24.811 24.803 24.847 24.84 24.802 24.728 24.775 24.654 24.597 24.614 24.61 24.568 24.631 24.663 24.694 24.673 24.71 24.729 24.809 24.734 24.803 24.741 24.757 24.683 24.756 24.731 24.808 24.835 24.838 24.862 24.905 24.906 24.76 24.254 24.092 24.522 24.881 24.923 24.907 24.894 24.899 24.932 24.921 24.892 24.877 24.878 24.87 24.832 24.855 24.858 24.819 24.775 24.746 24.734 24.649 24.634 24.627 24.616 24.6 24.607 24.604 24.605 24.598 24.607 24.606 24.606 24.607 24.614 24.632 24.672 24.657 24.695 24.711 24.774 24.809 24.869 24.891 24.938 24.944 24.998 25.031 25.069 25.068 25.061 25.029 25.048 25.015 25.005 25.001 25.005 24.963 24.945 24.934 24.923 24.873 24.829 24.83 24.824 24.786 24.736 24.71 24.639 24.624 24.607 24.599 24.599 24.582 24.562 24.559 24.549 24.536 24.537 24.515 24.554 24.541 24.576 24.56 24.564 24.596 24.749 24.764 24.906 24.941 25.045 25.088 25.221 25.316 25.429 25.512 25.627 25.762 25.875 26.001 26.113 26.226 26.341 26.382 26.455 26.48 26.498 26.492 26.462 26.444 26.368 26.363 26.251 26.208 26.119 26.088 26.011 25.986 25.941 25.923 25.924 25.902 25.9 25.878 25.881 25.841 25.873 25.838 25.881 25.83 25.825 25.776 25.835 25.801 25.845 25.833 25.834 25.91 25.952 25.985 26 26.098 26.137 26.237 26.228 26.284 26.303 26.368 26.39 26.435 26.473 26.486 26.483 26.527 26.567 26.603 26.644 26.681 26.707 26.76 26.823 26.897 26.959 27.017 27.086 27.141 27.213 27.32 27.385 27.447 27.513 27.596 27.682 27.762 27.835 27.92 27.975 28.032 28.079 28.15 28.182 28.226 28.245 28.29 28.288 28.302 28.324 28.257 28.285 28.195 28.166 28.084 27.97 27.889 27.762 27.635 27.483 27.308 27.177 27.042 26.901 26.758 26.599 26.563 26.376 26.365 26.286 26.277 26.223 26.22 26.202 26.185 26.19 26.18 26.205 26.223 26.209 26.233 26.194 26.229 26.181 26.188 26.133 26.155 26.083 26.085 26.031 26.009 25.989 25.937 25.919 25.836 25.835 25.78 25.734 25.686 25.697 25.635 25.607 25.507 25.485 25.53 25.581 25.535 25.55 25.456 25.494 25.494 25.521 25.679 25.796 25.625 25.463 25.527 25.575 25.551 25.494 25.525 25.456 25.503 25.333 25.294 25.372 25.379 25.355 25.398 25.468 25.543 25.686 25.747 25.988 26.084 26.315 26.435 26.643 26.783 26.923 26.893 26.996 26.958 26.969 26.959 26.953 27.003 26.944 26.938 26.912 26.91 26.918 26.9 26.861 26.843 26.886 26.881 26.869 26.903 26.914 26.953 26.861 26.869 26.862 26.845 26.823 26.847 26.807 26.769 26.703 26.681 26.579 26.446 26.43 26.39 26.257 26.151 26.103 26.02 26.013 25.979 25.952 25.936 25.913 25.909 25.859 25.9 25.831
26.429 26.671 26.542 26.59 26.417 26.332 26.34 26.338 26.287 26.285 26.26 26.261 26.197 26.209 26.144 26.162 26.106 26.107 26.051 26.018 25.99 26.002 25.974 25.958 25.915 25.914 25.892 25.871 25.89 25.851 25.853 25.809 25.82 25.697 25.656 25.662 25.593 25.544 25.606 25.543 25.441 25.381 25.329 25.24 25.204 25.141 25.107 25.041 25.105 24.988 25 25.069 25.001 24.972 24.925 24.92 24.925 24.971 24.957 24.934 24.879 24.909 24.863 24.791 24.758 24.746 24.754 24.691 24.555 24.57 24.548 24.61 24.587 24.634 24.533 24.555 24.49 24.527 24.469 24.482 24.435 24.46 24.42 24.418 24.42 24.437 24.448 24.467 24.507 24.508 24.537 24.561 24.583 24.587 24.595 24.644 24.608 24.587 24.58 24.604 24.625 24.634 24.672 24.69 24.782 24.777 24.813 24.765 24.462 24.071 24.334 24.837 24.84 24.822 24.819 24.836 24.822 24.858 24.838 24.843 24.803 24.82 24.766 24.827 24.785 24.791 24.726 24.691 24.628 24.591 24.578 24.603 24.6 24.575 24.579 24.566 24.561 24.593 24.586 24.591 24.599 24.627 24.572 24.595 24.629 24.671 24.683 24.7 24.729 24.801 24.852 24.884 24.94 24.945 24.963 24.974 24.99 24.989 24.956 24.969 24.989 24.963 24.915 24.9 24.899 24.857 24.862 24.857 24.841 24.844 24.843 24.849 24.775 24.788 24.715 24.734 24.654 24.664 24.633 24.64 24.62 24.63 24.581 24.59 24.549 24.566 24.553 24.538 24.557 24.524 24.558 24.553 24.549 24.538 24.651 24.748 24.861 24.92 24.984 25.065 25.167 25.286 25.361 25.475 25.583 25.71 25.861 26.007 26.157 26.202 26.328 26.387 26.455 26.471 26.492 26.5 26.463 26.446 26.375 26.331 26.257 26.19 26.103 26.062 26.001 25.957 25.943 25.931 25.922 25.846 25.882 25.851 25.859 25.822 25.795 25.77 25.787 25.75 25.741 25.749 25.769 25.806 25.787 25.812 25.811 25.886 25.9 25.959 25.965 26.07 26.113 26.176 26.194 26.25 26.267 26.312 26.362 26.377 26.422 26.412 26.446 26.483 26.52 26.574 26.636 26.684 26.735 26.775 26.83 26.879 26.968 27.066 27.104 27.187 27.227 27.326 27.366 27.481 27.513 27.618 27.668 27.772 27.799 27.912 27.973 28.02 28.056 28.138 28.14 28.159 28.209 28.267 28.267 28.257 28.283 28.249 28.216 28.168 28.122 28.057 27.938 27.871 27.722 27.585 27.429 27.284 27.134 26.978 26.821 26.715 26.545 26.5 26.357 26.317 26.295 26.257 26.229 26.206 26.241 26.204 26.236 26.2 26.219 26.23 26.234 26.242 26.211 26.239 26.229 26.215 26.198 26.197 26.151 26.137 26.096 26.07 26.019 25.956 25.93 25.874 25.86 25.838 25.791 25.736 25.7 25.679 25.664 25.605 25.56 25.523 25.583 25.578 25.603 25.502 25.487 25.475 25.522 25.575 25.676 25.694 25.709 25.542 25.524 25.566 25.52 25.472 25.417 25.448 25.351 25.295 25.298 25.309 25.385 25.396 25.483 25.491 25.652 25.713 25.954 26.062 26.313 26.445 26.594 26.73 26.883 26.905 26.942 26.975 26.976 26.988 27.03 27.004 26.954 26.926 26.931 26.899 26.938 26.853 26.852 26.826 26.86 26.886 26.912 26.91 26.903 26.933 26.877 26.906 26.883 26.88 26.899 26.893 26.876 26.892 26.802 26.739 26.694 26.639 26.558 26.459 26.393 26.285 26.212 26.124 26.1 26.095 25.983 26.021 25.948 25.967 25.9 25.981 25.925
27.415 28.218 27.509 27.781 26.992 26.341 26.348 26.361 26.337 26.334 26.307 26.29 26.247 26.258 26.202 26.151 26.099 26.11 25.992 25.933 25.894 25.844 25.844 25.837 25.753 25.711 25.759 25.59 25.623 25.562 25.545 25.429 25.409 25.262 25.237 25.163 25.185 25.104 25.096 25.088 24.936 24.897 24.847 24.84 24.784 24.805 24.789 24.754 24.723 24.72 24.707 24.703 24.681 24.693 24.639 24.621 24.626 24.635 24.629 24.578 24.531 24.5 24.493 24.481 24.486 24.477 24.455 24.428 24.427 24.419 24.449 24.409 24.411 24.414 24.407 24.393 24.379 24.397 24.38 24.363 24.359 24.346 24.352 24.356 24.369 24.376 24.41 24.427 24.451 24.46 24.476 24.508 24.503 24.518 24.526 24.54 24.543 24.537 24.558 24.564 24.598 24.581 24.648 24.638 24.742 24.834 24.85 24.843 24.436 23.733 24.148 24.731 24.78 24.805 24.8 24.796 24.805 24.799 24.774 24.778 24.771 24.788 24.718 24.679 24.693 24.704 24.653 24.644 24.546 24.568 24.539 24.547 24.574 24.565 24.57 24.548 24.518 24.505 24.509 24.553 24.559 24.53 24.517 24.526 24.552 24.588 24.599 24.646 24.679 24.784 24.824 24.889 24.892 24.927 24.935 24.982 24.981 24.987 24.945 24.935 24.937 24.907 24.852 24.814 24.811 24.811 24.861 24.852 24.854 24.869 24.847 24.851 24.765 24.777 24.733 24.713 24.687 24.684 24.638 24.639 24.604 24.615 24.592 24.563 24.557 24.56 24.58 24.569 24.573 24.55 24.561 24.541 24.528 24.535 24.613 24.7 24.77 24.882 24.931 25.027 25.101 25.232 25.315 25.451 25.542 25.7 25.826 26.012 26.13 26.229 26.333 26.409 26.435 26.452 26.455 26.448 26.436 26.415 26.368 26.29 26.276 26.137 26.081 26.008 26.016 25.935 25.933 25.865 25.89 25.811 25.834 25.774 25.785 25.761 25.735 25.753 25.727 25.685 25.678 25.744 25.745 25.78 25.744 25.793 25.77 25.843 25.844 25.92 25.955 26.011 26.068 26.109 26.153 26.154 26.232 26.242 26.29 26.287 26.344 26.368 26.434 26.467 26.541 26.573 26.646 26.699 26.733 26.817 26.863 26.938 27.01 27.084 27.134 27.221 27.268 27.344 27.405 27.517 27.523 27.645 27.676 27.77 27.791 27.882 27.915 28.031 28.04 28.091 28.129 28.171 28.21 28.227 28.233 28.247 28.252 28.236 28.191 28.136 28.064 28.013 27.872 27.8 27.649 27.529 27.34 27.216 27.093 26.949 26.74 26.649 26.508 26.402 26.343 26.268 26.286 26.228 26.254 26.21 26.235 26.228 26.246 26.221 26.247 26.271 26.276 26.274 26.29 26.313 26.289 26.253 26.241 26.196 26.2 26.133 26.138 26.087 26.074 26.021 25.984 25.939 25.919 25.875 25.855 25.824 25.791 25.767 25.72 25.695 25.672 25.61 25.569 25.569 25.593 25.547 25.499 25.498 25.48 25.505 25.546 25.575 25.585 25.552 25.49 25.566 25.519 25.469 25.509 25.415 25.356 25.315 25.33 25.304 25.437 25.392 25.465 25.455 25.635 25.741 25.908 26.048 26.235 26.407 26.591 26.716 26.826 26.917 26.985 27.019 26.983 26.997 26.968 27.013 26.983 26.926 26.942 26.891 26.931 26.867 26.856 26.828 26.863 26.883 26.859 26.894 26.923 26.923 26.915 26.964 26.921 26.936 26.963 26.921 26.923 26.999 26.903 26.857 26.752 26.729 26.633 26.552 26.457 26.409 26.263 26.213 26.096 26.196 26.064 26.092 26.057 26.059 25.994 25.985 25.967
