ncols 433
nrows 32
xllcorner    502118
yllcorner    480660
cellsize     2
NODATA_value -9999
26.437 26.357 26.271 26.144 26.043 25.963 25.899 25.849 25.778 25.767 25.707 25.657 25.638 25.572 25.549 25.481 25.383 25.283 25.313 25.316 25.256 25.171 25.092 25.031 24.964 24.89 24.802 24.73 24.674 24.591 24.55 24.576 24.568 24.554 24.538 24.519 24.486 24.432 24.402 24.382 24.396 24.386 24.359 24.347 24.355 24.36 24.364 24.359 24.359 24.37 24.384 24.368 24.389 24.4 24.436 24.445 24.453 24.435 24.46 24.426 24.416 24.376 24.294 24.135 23.943 23.747 23.622 23.742 24.01 24.365 24.337 24.257 24.262 24.288 24.234 24.184 24.096 24.054 24.016 23.992 23.957 23.934 23.913 23.927 23.92 23.92 23.916 23.921 23.947 23.975 23.982 23.979 23.968 23.992 24.02 24.018 24.023 24.027 24.068 24.106 24.12 24.122 24.086 24.041 24.103 24.826 26.021 24.624 24.221 24.282 24.304 24.287 24.296 24.276 24.298 24.283 24.25 24.243 24.232 24.211 24.195 24.202 24.198 24.172 24.158 24.166 24.178 24.195 24.224 24.246 24.256 24.26 24.275 24.263 24.281 24.275 24.263 24.25 24.271 24.267 24.266 24.264 24.231 24.223 24.234 24.255 24.239 24.264 24.27 24.281 24.305 24.265 24.238 24.243 24.244 24.235 24.219 24.215 24.182 24.191 24.193 24.187 24.167 24.155 24.16 24.181 24.205 24.202 24.184 24.188 24.196 24.198 24.191 24.159 24.168 24.163 24.151 24.139 24.129 24.13 24.128 24.14 24.122 24.123 24.123 24.134 24.137 24.162 24.169 24.166 24.157 24.11 24.079 24.073 24.061 24.067 24.079 24.145 24.304 24.37 24.277 24.274 24.072 23.675 24.528 24.783 24.726 24.649 24.645 24.662 24.668 24.68 24.7 24.744 24.778 24.793 24.76 24.712 24.657 24.625 24.681 24.664 24.622 24.706 24.834 25.234 23.867 24.267 24.269 24.374 24.394 24.378 24.369 24.368 24.363 24.344 24.337 24.338 24.341 24.343 24.345 24.353 24.36 24.389 24.399 24.411 24.414 24.429 24.436 24.439 24.451 24.472 24.49 24.511 24.519 24.529 24.524 24.53 24.552 24.581 24.559 24.571 24.585 24.596 24.598 24.591 24.607 24.619 24.628 24.634 24.637 24.638 24.652 24.656 24.662 24.657 24.659 24.669 24.666 24.683 24.671 24.659 24.656 24.656 24.662 24.657 24.661 24.64 24.641 24.655 24.66 24.652 24.65 24.638 24.612 24.601 24.596 24.587 24.58 24.568 24.582 24.585 24.602 24.622 24.608 24.643 24.599 24.629 24.57 24.595 24.567 24.588 24.612 24.587 24.625 24.618 24.624 24.61 24.624 24.595 24.614 24.588 24.666 24.635 24.603 24.621 24.592 24.615 24.576 24.642 24.594 24.616 24.556 24.548 24.561 24.443 24.459 24.413 24.384 24.437 24.741 24.983 24.311 24.439 24.525 24.562 24.524 24.539 24.558 24.562 24.551 24.565 24.592 24.568 24.594 24.61 24.616 24.565 24.637 24.635 24.661 24.618 24.667 24.655 24.673 24.735 24.706 24.739 24.713 24.748 24.732 24.737 24.719 24.793 24.806 24.833 24.805 24.825 24.871 24.866 24.866 24.858 24.858 24.874 24.893 24.909 24.936 24.917 24.946 24.974 24.98 24.992 25.048 25.019 24.997 25.081 25.093 25.091 25.078 25.062 25.096 25.093 25.101 25.114 25.137 25.109 25.159 25.16 25.164 25.183 25.198 25.167 25.173 25.239 25.225 25.22 25.233 25.239 25.216 25.324 25.289 25.299 25.308 25.273 25.257 25.286 25.306 25.288 25.263 25.243 25.256 25.242 25.249
26.481 26.404 26.315 26.163 26.05 25.934 25.879 25.844 25.815 25.805 25.762 25.671 25.644 25.612 25.571 25.516 25.377 25.256 25.239 25.24 25.165 25.099 25.05 24.986 24.915 24.833 24.745 24.687 24.644 24.576 24.565 24.586 24.567 24.565 24.574 24.54 24.48 24.453 24.423 24.404 24.41 24.405 24.395 24.393 24.387 24.391 24.397 24.377 24.396 24.433 24.443 24.467 24.491 24.492 24.476 24.465 24.447 24.415 24.349 24.254 24.249 24.018 23.962 23.671 23.726 23.803 24.097 24.149 24.248 24.283 24.273 24.265 24.172 24.311 24.289 24.253 24.199 24.159 24.118 24.074 24.026 23.987 23.966 23.963 23.951 23.948 23.945 23.959 23.984 24.011 24.005 24.005 24.006 24.008 24.014 24.018 23.996 24.017 24.064 24.096 24.119 24.109 24.091 24.037 23.994 24.212 24.302 23.908 24.159 24.303 24.301 24.306 24.298 24.288 24.297 24.288 24.265 24.253 24.255 24.211 24.172 24.184 24.174 24.165 24.138 24.121 24.192 24.215 24.241 24.255 24.278 24.28 24.286 24.265 24.255 24.279 24.257 24.252 24.275 24.257 24.264 24.256 24.245 24.231 24.267 24.266 24.262 24.274 24.282 24.28 24.289 24.252 24.255 24.272 24.257 24.243 24.219 24.229 24.202 24.198 24.202 24.197 24.182 24.157 24.162 24.166 24.199 24.176 24.188 24.195 24.219 24.202 24.203 24.195 24.18 24.186 24.165 24.146 24.125 24.113 24.126 24.133 24.112 24.119 24.113 24.12 24.127 24.134 24.15 24.157 24.147 24.108 24.087 24.11 24.117 24.105 24.132 24.176 24.344 24.395 24.29 24.282 24.207 23.775 24.372 24.729 24.678 24.618 24.67 24.673 24.634 24.709 24.694 24.757 24.785 24.81 24.804 24.759 24.685 24.617 24.603 24.618 24.627 24.712 24.879 26.6 24.544 24.175 24.299 24.368 24.38 24.376 24.363 24.341 24.349 24.33 24.318 24.31 24.331 24.32 24.337 24.346 24.35 24.363 24.367 24.416 24.432 24.43 24.454 24.46 24.472 24.468 24.48 24.501 24.514 24.533 24.533 24.546 24.548 24.547 24.565 24.568 24.593 24.595 24.615 24.594 24.599 24.611 24.621 24.622 24.634 24.665 24.674 24.686 24.679 24.696 24.69 24.698 24.675 24.679 24.68 24.659 24.658 24.65 24.653 24.661 24.677 24.651 24.663 24.659 24.62 24.662 24.622 24.659 24.607 24.646 24.616 24.618 24.603 24.574 24.573 24.59 24.547 24.603 24.607 24.635 24.62 24.623 24.613 24.621 24.603 24.621 24.604 24.627 24.631 24.624 24.631 24.59 24.649 24.606 24.617 24.597 24.639 24.619 24.612 24.6 24.591 24.625 24.594 24.629 24.618 24.609 24.595 24.566 24.549 24.482 24.473 24.429 24.408 24.41 24.697 25.377 24.462 24.455 24.527 24.547 24.556 24.542 24.538 24.574 24.588 24.585 24.633 24.63 24.603 24.62 24.647 24.602 24.644 24.61 24.669 24.652 24.699 24.651 24.7 24.738 24.745 24.698 24.723 24.743 24.714 24.729 24.695 24.77 24.787 24.839 24.786 24.837 24.81 24.879 24.814 24.821 24.835 24.829 24.852 24.865 24.921 24.902 24.904 24.946 24.994 24.992 25 25.046 25 25.033 25.085 25.097 25.082 25.05 25.091 25.122 25.098 25.087 25.131 25.126 25.143 25.167 25.172 25.181 25.205 25.225 25.183 25.231 25.223 25.251 25.252 25.253 25.228 25.309 25.299 25.339 25.327 25.305 25.269 25.285 25.311 25.28 25.29 25.253 25.26 25.23 25.261
26.419 26.263 26.165 26.062 25.957 25.902 25.856 25.855 25.847 25.823 25.796 25.73 25.666 25.716 25.694 25.651 25.449 25.195 25.154 25.12 25.068 25.038 25.008 24.948 24.857 24.774 24.709 24.662 24.606 24.578 24.583 24.582 24.585 24.585 24.589 24.545 24.494 24.45 24.435 24.432 24.422 24.433 24.42 24.419 24.424 24.417 24.441 24.459 24.502 24.516 24.518 24.511 24.471 24.429 24.397 24.366 24.289 24.191 24.075 23.806 23.662 23.857 23.779 23.974 24.116 24.097 24.142 24.165 24.229 24.33 24.339 24.289 24.289 24.352 24.311 24.28 24.277 24.257 24.157 24.099 24.054 24.016 23.994 23.988 23.979 23.992 23.991 23.988 24 24.019 24.007 23.995 24.01 23.995 23.981 23.988 24.002 24.021 24.066 24.108 24.141 24.132 24.11 24.022 23.989 24.144 24.358 24.187 24.199 24.292 24.311 24.309 24.309 24.293 24.303 24.291 24.275 24.245 24.228 24.2 24.179 24.171 24.194 24.18 24.162 24.179 24.221 24.234 24.253 24.278 24.287 24.285 24.293 24.289 24.294 24.314 24.275 24.266 24.259 24.257 24.265 24.243 24.257 24.254 24.265 24.27 24.273 24.267 24.274 24.287 24.276 24.243 24.257 24.26 24.254 24.245 24.212 24.215 24.227 24.232 24.224 24.199 24.179 24.168 24.176 24.18 24.181 24.153 24.173 24.184 24.195 24.193 24.204 24.191 24.174 24.188 24.168 24.157 24.131 24.124 24.11 24.103 24.097 24.109 24.121 24.121 24.123 24.112 24.129 24.129 24.112 24.127 24.133 24.177 24.199 24.187 24.195 24.24 24.328 24.372 24.349 24.3 24.272 24.292 25.947 24.751 24.719 24.64 24.669 24.615 24.639 24.66 24.648 24.759 24.728 24.751 24.763 24.731 24.674 24.596 24.526 24.574 24.587 24.625 24.714 25.385 24.287 24.055 24.315 24.342 24.374 24.366 24.355 24.35 24.346 24.338 24.331 24.311 24.308 24.319 24.318 24.341 24.366 24.372 24.385 24.412 24.434 24.44 24.461 24.474 24.482 24.484 24.507 24.521 24.552 24.544 24.544 24.562 24.566 24.566 24.582 24.575 24.579 24.586 24.601 24.627 24.637 24.65 24.667 24.64 24.646 24.682 24.683 24.704 24.695 24.703 24.703 24.683 24.685 24.683 24.69 24.659 24.662 24.665 24.651 24.658 24.649 24.65 24.632 24.662 24.602 24.642 24.607 24.654 24.625 24.65 24.636 24.627 24.6 24.57 24.593 24.594 24.612 24.652 24.632 24.615 24.604 24.622 24.597 24.619 24.612 24.641 24.623 24.629 24.628 24.637 24.628 24.607 24.647 24.622 24.629 24.651 24.658 24.615 24.62 24.618 24.617 24.616 24.606 24.597 24.648 24.622 24.58 24.585 24.537 24.514 24.475 24.463 24.407 24.405 24.501 24.741 24.389 24.459 24.52 24.55 24.581 24.55 24.537 24.574 24.617 24.601 24.635 24.681 24.62 24.636 24.654 24.608 24.626 24.672 24.708 24.653 24.706 24.682 24.721 24.717 24.787 24.701 24.715 24.72 24.715 24.71 24.675 24.732 24.758 24.781 24.778 24.778 24.827 24.858 24.845 24.77 24.873 24.83 24.831 24.868 24.912 24.9 24.855 24.943 24.982 24.98 24.988 25.029 24.984 25.005 25.061 25.053 25.073 25.009 25.091 25.058 25.071 25.057 25.095 25.147 25.136 25.158 25.188 25.16 25.237 25.196 25.228 25.236 25.238 25.198 25.284 25.25 25.274 25.251 25.284 25.321 25.322 25.312 25.258 25.267 25.323 25.277 25.301 25.27 25.275 25.236 25.244
26.267 26.101 26.075 26.026 25.963 25.924 25.879 25.861 25.832 25.806 25.785 25.752 25.669 25.707 25.76 25.607 25.448 25.243 25.16 25.086 25.008 24.963 24.927 24.871 24.798 24.742 24.68 24.659 24.625 24.587 24.594 24.598 24.59 24.589 24.576 24.526 24.482 24.453 24.442 24.45 24.45 24.448 24.449 24.454 24.485 24.53 24.539 24.539 24.533 24.507 24.46 24.421 24.37 24.273 24.206 23.93 23.834 23.719 23.798 23.906 24.047 24.11 24.062 24.098 24.121 24.14 24.153 24.181 24.225 24.294 24.358 24.294 24.323 24.357 24.282 24.234 24.239 24.257 24.197 24.123 24.068 24.024 24.029 24.032 24.007 23.983 23.985 23.984 23.994 23.995 23.99 23.989 23.992 23.989 23.986 23.994 24.013 24.031 24.071 24.122 24.157 24.163 24.133 24.06 24.003 24.135 24.252 24.096 24.285 24.316 24.329 24.314 24.324 24.329 24.313 24.282 24.264 24.218 24.216 24.2 24.176 24.179 24.203 24.199 24.19 24.221 24.241 24.266 24.293 24.317 24.312 24.291 24.306 24.297 24.316 24.308 24.293 24.292 24.276 24.268 24.281 24.26 24.254 24.267 24.259 24.281 24.264 24.267 24.272 24.283 24.281 24.271 24.265 24.267 24.254 24.258 24.23 24.244 24.238 24.229 24.224 24.217 24.183 24.19 24.19 24.184 24.183 24.2 24.195 24.186 24.202 24.193 24.195 24.168 24.178 24.176 24.176 24.161 24.134 24.129 24.128 24.127 24.123 24.135 24.142 24.143 24.138 24.123 24.14 24.15 24.151 24.184 24.212 24.196 24.206 24.196 24.294 24.49 24.653 24.495 24.749 24.298 24.44 24.328 26.222 24.827 24.721 24.679 24.71 24.671 24.735 24.743 24.723 24.857 24.69 24.693 24.718 24.699 24.646 24.611 24.533 24.516 24.587 24.603 24.629 25.139 26.041 23.998 24.28 24.324 24.346 24.354 24.346 24.336 24.333 24.344 24.33 24.319 24.305 24.324 24.34 24.352 24.359 24.374 24.389 24.4 24.437 24.44 24.454 24.475 24.489 24.496 24.518 24.536 24.557 24.543 24.552 24.562 24.565 24.579 24.592 24.6 24.612 24.627 24.63 24.645 24.646 24.649 24.662 24.684 24.688 24.69 24.687 24.7 24.707 24.718 24.72 24.695 24.684 24.694 24.669 24.656 24.65 24.649 24.652 24.653 24.634 24.629 24.638 24.646 24.629 24.632 24.643 24.65 24.629 24.637 24.617 24.657 24.596 24.601 24.589 24.627 24.625 24.6 24.614 24.61 24.641 24.619 24.631 24.633 24.645 24.651 24.661 24.652 24.63 24.641 24.62 24.617 24.62 24.646 24.626 24.67 24.667 24.653 24.65 24.617 24.621 24.598 24.638 24.588 24.65 24.619 24.58 24.583 24.544 24.559 24.498 24.493 24.466 24.411 24.438 24.559 24.271 24.37 24.511 24.581 24.59 24.561 24.552 24.55 24.617 24.599 24.571 24.681 24.666 24.637 24.626 24.656 24.618 24.702 24.718 24.681 24.69 24.725 24.751 24.727 24.785 24.733 24.726 24.705 24.714 24.694 24.7 24.714 24.762 24.752 24.756 24.771 24.819 24.844 24.825 24.777 24.782 24.8 24.825 24.833 24.913 24.916 24.875 24.952 24.977 25.003 24.959 25.009 24.993 24.987 25.013 25.035 25.043 25.056 25.081 25.042 25.089 25.084 25.115 25.128 25.133 25.156 25.208 25.191 25.239 25.19 25.23 25.192 25.29 25.257 25.263 25.233 25.272 25.23 25.307 25.275 25.313 25.282 25.249 25.269 25.3 25.262 25.28 25.26 25.265 25.242 25.226
26.176 26.138 26.076 26.039 25.978 25.935 25.914 25.901 25.864 25.861 25.886 25.936 25.875 25.945 26.064 26.028 25.725 25.313 25.126 25.041 24.935 24.891 24.851 24.784 24.729 24.701 24.675 24.642 24.623 24.607 24.6 24.593 24.58 24.559 24.548 24.493 24.467 24.45 24.457 24.475 24.495 24.515 24.567 24.553 24.538 24.551 24.56 24.545 24.486 24.443 24.382 24.286 24.199 23.864 23.646 23.815 23.932 24.076 24.121 24.153 24.15 24.152 24.145 24.143 24.132 24.148 24.166 24.171 24.209 24.258 24.292 24.315 24.299 24.307 24.299 24.257 24.325 24.204 24.168 24.093 24.059 24.038 24.034 24.029 24.001 23.98 23.987 23.99 24 23.99 24 24.013 24.018 24.012 24.016 24.021 24.032 24.056 24.083 24.139 24.183 24.185 24.136 24.091 24.02 24.065 24.201 24 24.256 24.369 24.386 24.364 24.322 24.317 24.303 24.288 24.255 24.221 24.207 24.178 24.167 24.191 24.178 24.199 24.215 24.243 24.266 24.299 24.316 24.328 24.31 24.296 24.328 24.343 24.321 24.299 24.305 24.289 24.279 24.27 24.286 24.272 24.278 24.261 24.271 24.287 24.272 24.291 24.272 24.274 24.281 24.275 24.27 24.274 24.264 24.266 24.253 24.263 24.257 24.262 24.236 24.228 24.226 24.226 24.202 24.22 24.215 24.228 24.199 24.202 24.2 24.197 24.193 24.171 24.161 24.167 24.169 24.167 24.159 24.158 24.153 24.16 24.167 24.178 24.158 24.19 24.174 24.171 24.175 24.199 24.216 24.194 24.162 24.149 24.097 24.064 24.218 24.475 24.319 24.296 23.97 24.288 24.306 24.188 25.346 25.171 24.766 24.715 24.694 24.708 24.789 24.782 24.837 25.111 24.783 24.67 24.697 24.683 24.651 24.61 24.564 24.516 24.578 24.647 24.664 24.878 25.376 23.981 24.231 24.286 24.325 24.358 24.349 24.332 24.324 24.325 24.332 24.322 24.324 24.323 24.341 24.351 24.377 24.369 24.398 24.388 24.429 24.449 24.467 24.478 24.491 24.493 24.529 24.554 24.558 24.564 24.569 24.585 24.597 24.619 24.61 24.614 24.629 24.65 24.648 24.653 24.66 24.68 24.67 24.687 24.683 24.698 24.705 24.71 24.713 24.721 24.718 24.698 24.678 24.689 24.678 24.666 24.655 24.633 24.639 24.622 24.628 24.65 24.644 24.636 24.625 24.634 24.676 24.631 24.653 24.629 24.639 24.661 24.656 24.632 24.625 24.616 24.635 24.562 24.64 24.603 24.649 24.608 24.652 24.59 24.658 24.667 24.621 24.655 24.634 24.649 24.631 24.629 24.598 24.66 24.594 24.645 24.645 24.632 24.632 24.638 24.607 24.584 24.611 24.604 24.646 24.635 24.608 24.577 24.544 24.564 24.514 24.493 24.453 24.431 24.424 24.252 23.85 24.365 24.486 24.568 24.597 24.575 24.546 24.553 24.614 24.614 24.591 24.667 24.656 24.643 24.631 24.663 24.621 24.677 24.716 24.72 24.69 24.71 24.702 24.724 24.733 24.735 24.736 24.676 24.703 24.675 24.723 24.691 24.756 24.729 24.745 24.741 24.788 24.788 24.808 24.799 24.787 24.817 24.855 24.846 24.904 24.909 24.903 24.943 24.957 24.964 24.965 24.987 25.008 24.992 25.032 25.043 25.042 25.071 25.044 25.095 25.107 25.084 25.099 25.105 25.117 25.14 25.167 25.189 25.185 25.22 25.23 25.19 25.26 25.247 25.237 25.246 25.269 25.246 25.305 25.262 25.306 25.293 25.261 25.247 25.26 25.28 25.244 25.254 25.254 25.257 25.221
26.241 26.213 26.138 26.239 26.095 26.09 26.234 26.034 25.977 25.973 25.99 26.041 26.253 26.107 26.101 26.253 25.915 25.41 25.083 24.983 24.881 24.838 24.81 24.766 24.708 24.673 24.648 24.642 24.625 24.628 24.621 24.611 24.598 24.578 24.557 24.527 24.536 24.531 24.558 24.601 24.618 24.598 24.585 24.567 24.574 24.552 24.541 24.483 24.29 24.157 23.905 23.71 23.756 23.892 24.043 24.135 24.182 24.191 24.169 24.184 24.189 24.172 24.165 24.155 24.152 24.154 24.154 24.165 24.184 24.207 24.238 24.324 24.323 24.409 24.521 24.192 24.276 24.202 24.119 24.067 24.027 24.036 24.048 24.033 24.016 24.008 24.009 24.023 24.02 24.015 24.022 24.038 24.033 24.028 24.034 24.043 24.057 24.061 24.118 24.172 24.208 24.22 24.153 24.094 24.036 24.05 24.218 23.999 24.166 24.377 24.395 24.377 24.335 24.302 24.299 24.294 24.245 24.222 24.215 24.189 24.164 24.182 24.204 24.218 24.249 24.246 24.29 24.302 24.296 24.305 24.29 24.318 24.321 24.333 24.306 24.282 24.301 24.292 24.289 24.297 24.308 24.284 24.283 24.261 24.278 24.289 24.296 24.31 24.281 24.265 24.289 24.285 24.276 24.27 24.278 24.277 24.277 24.27 24.245 24.253 24.259 24.255 24.262 24.248 24.22 24.215 24.202 24.196 24.207 24.206 24.214 24.201 24.182 24.182 24.185 24.184 24.2 24.191 24.188 24.203 24.209 24.226 24.22 24.213 24.198 24.205 24.177 24.174 24.137 24.145 24.144 24.064 23.94 23.914 23.721 23.732 23.612 23.797 23.88 23.788 24.186 24.315 24.38 24.375 25.204 26.012 25.304 24.854 24.678 24.718 24.78 24.744 24.783 24.793 24.781 24.728 24.731 24.716 24.675 24.655 24.582 24.52 24.618 24.7 24.716 24.694 25.672 23.986 24.139 24.274 24.307 24.331 24.339 24.326 24.325 24.325 24.348 24.349 24.337 24.345 24.342 24.365 24.381 24.393 24.403 24.405 24.453 24.452 24.463 24.481 24.498 24.51 24.525 24.564 24.582 24.58 24.58 24.588 24.589 24.594 24.621 24.622 24.645 24.656 24.653 24.65 24.663 24.679 24.695 24.698 24.697 24.704 24.704 24.709 24.71 24.704 24.699 24.685 24.637 24.68 24.678 24.662 24.626 24.651 24.628 24.615 24.621 24.64 24.65 24.615 24.621 24.602 24.655 24.604 24.645 24.627 24.626 24.685 24.66 24.658 24.613 24.629 24.6 24.597 24.608 24.614 24.667 24.612 24.644 24.637 24.663 24.66 24.675 24.666 24.648 24.657 24.633 24.647 24.601 24.657 24.62 24.63 24.638 24.658 24.617 24.604 24.636 24.614 24.637 24.624 24.655 24.634 24.62 24.621 24.572 24.543 24.525 24.504 24.458 24.437 24.399 24.496 24.092 24.265 24.483 24.538 24.554 24.578 24.557 24.545 24.603 24.617 24.616 24.661 24.67 24.616 24.617 24.659 24.618 24.651 24.674 24.697 24.666 24.719 24.698 24.72 24.723 24.732 24.715 24.683 24.685 24.682 24.728 24.682 24.721 24.723 24.737 24.738 24.759 24.753 24.773 24.774 24.758 24.84 24.86 24.883 24.882 24.931 24.915 24.931 24.968 24.98 24.961 24.968 25.064 24.985 25.02 25.085 25.07 25.099 25.087 25.112 25.11 25.134 25.119 25.133 25.127 25.176 25.182 25.211 25.176 25.225 25.231 25.186 25.221 25.23 25.215 25.226 25.24 25.247 25.287 25.263 25.31 25.272 25.231 25.201 25.261 25.275 25.233 25.25 25.234 25.253 25.229
26.329 26.301 26.758 28.603 28.699 28.955 28.587 26.278 26.163 26.105 26.711 26.212 26.577 26.161 26.343 26.906 26.896 25.531 25.089 24.987 24.878 24.808 24.753 24.729 24.706 24.661 24.637 24.641 24.634 24.613 24.617 24.628 24.618 24.628 24.603 24.612 24.633 24.65 24.651 24.632 24.617 24.584 24.568 24.538 24.51 24.477 24.325 23.958 23.89 23.906 23.805 23.959 24.083 24.227 24.213 24.218 24.225 24.223 24.203 24.198 24.197 24.184 24.178 24.166 24.171 24.153 24.138 24.139 24.143 24.164 24.189 24.251 24.414 24.605 24.331 24.146 24.137 24.086 24.026 24.031 24.032 24.042 24.049 24.045 24.045 24.048 24.035 24.043 24.048 24.055 24.066 24.063 24.072 24.076 24.05 24.064 24.078 24.089 24.15 24.203 24.257 24.244 24.164 24.089 24.049 24.053 24.09 23.968 24.259 24.374 24.4 24.387 24.342 24.305 24.295 24.288 24.255 24.23 24.22 24.195 24.167 24.189 24.227 24.245 24.261 24.272 24.294 24.303 24.301 24.302 24.305 24.318 24.321 24.328 24.325 24.307 24.298 24.298 24.295 24.307 24.308 24.294 24.297 24.292 24.299 24.297 24.298 24.299 24.299 24.293 24.272 24.286 24.271 24.284 24.297 24.288 24.274 24.262 24.257 24.267 24.271 24.267 24.271 24.234 24.222 24.204 24.182 24.196 24.209 24.206 24.213 24.203 24.209 24.198 24.208 24.219 24.266 24.262 24.263 24.26 24.248 24.263 24.216 24.177 24.138 24.11 24.04 24.048 23.828 23.844 23.687 23.695 23.656 23.756 23.872 23.95 24.142 24.229 24.463 24.487 24.556 24.528 24.438 24.334 24.569 26.12 25.292 25.18 24.84 24.715 24.743 24.758 24.867 24.87 24.806 24.731 24.742 24.768 24.743 24.739 24.718 24.656 24.635 24.658 24.722 24.712 24.763 24.271 24.129 24.293 24.327 24.345 24.341 24.351 24.339 24.333 24.353 24.37 24.365 24.371 24.365 24.37 24.377 24.376 24.416 24.44 24.457 24.463 24.459 24.473 24.505 24.516 24.553 24.577 24.591 24.598 24.602 24.606 24.596 24.607 24.614 24.649 24.65 24.666 24.652 24.66 24.677 24.683 24.69 24.697 24.685 24.685 24.706 24.704 24.713 24.725 24.69 24.704 24.665 24.69 24.641 24.63 24.625 24.617 24.575 24.619 24.618 24.612 24.649 24.586 24.627 24.59 24.67 24.636 24.667 24.656 24.676 24.669 24.692 24.683 24.62 24.642 24.627 24.605 24.606 24.615 24.604 24.629 24.642 24.614 24.632 24.62 24.653 24.672 24.645 24.643 24.619 24.632 24.603 24.631 24.624 24.621 24.632 24.639 24.643 24.651 24.649 24.642 24.632 24.659 24.613 24.641 24.623 24.597 24.605 24.555 24.541 24.498 24.472 24.465 24.437 24.498 24.315 24.021 24.439 24.492 24.553 24.592 24.562 24.569 24.577 24.597 24.581 24.595 24.659 24.616 24.61 24.606 24.618 24.63 24.671 24.703 24.652 24.671 24.683 24.723 24.689 24.728 24.691 24.689 24.674 24.678 24.702 24.664 24.687 24.711 24.705 24.708 24.724 24.759 24.774 24.756 24.78 24.833 24.864 24.904 24.831 24.942 24.942 24.958 24.976 24.954 24.996 24.973 25.052 25.032 25.052 25.071 25.077 25.126 25.1 25.164 25.166 25.147 25.095 25.134 25.182 25.17 25.192 25.231 25.178 25.216 25.214 25.254 25.245 25.257 25.198 25.232 25.206 25.267 25.227 25.304 25.284 25.272 25.243 25.209 25.209 25.273 25.211 25.26 25.237 25.254 25.219
26.471 26.436 26.892 29.554 30.158 30.306 30.26 29.418 29.277 28.519 29.711 26.997 26.076 26.043 26.088 26.88 26.689 25.732 25.148 24.997 24.891 24.805 24.758 24.713 24.691 24.661 24.644 24.624 24.638 24.656 24.659 24.654 24.703 24.722 24.709 24.704 24.7 24.681 24.676 24.638 24.591 24.588 24.541 24.4 24.113 23.975 23.876 23.873 23.96 24.141 24.194 24.253 24.239 24.256 24.258 24.256 24.25 24.244 24.216 24.212 24.192 24.183 24.163 24.17 24.166 24.129 24.131 24.151 24.126 24.133 24.139 24.16 24.22 24.299 24.073 24.02 24.025 23.975 24.008 24.028 24.058 24.061 24.063 24.065 24.065 24.078 24.069 24.071 24.074 24.078 24.074 24.071 24.081 24.09 24.089 24.097 24.096 24.112 24.162 24.224 24.279 24.272 24.219 24.115 24.054 24.085 24.077 23.885 24.291 24.433 24.452 24.377 24.354 24.317 24.291 24.277 24.271 24.246 24.238 24.216 24.194 24.227 24.259 24.274 24.292 24.297 24.321 24.315 24.316 24.329 24.346 24.34 24.343 24.346 24.337 24.314 24.305 24.3 24.328 24.312 24.299 24.303 24.311 24.314 24.325 24.309 24.317 24.327 24.339 24.308 24.3 24.316 24.291 24.29 24.316 24.283 24.262 24.253 24.256 24.269 24.259 24.268 24.265 24.242 24.225 24.225 24.207 24.201 24.223 24.22 24.235 24.244 24.267 24.267 24.257 24.252 24.273 24.279 24.245 24.194 24.152 24.09 24.035 23.922 23.846 23.789 23.692 23.609 23.519 23.684 23.844 24.002 24.137 24.14 24.25 24.298 24.362 24.396 24.463 24.505 24.608 24.544 24.466 24.504 24.891 27.361 25.848 24.783 24.774 24.706 24.734 24.771 24.867 24.939 24.811 24.73 24.764 24.812 24.797 24.773 24.791 24.694 24.629 24.702 24.976 24.716 24.679 25.075 24.101 24.281 24.342 24.354 24.338 24.325 24.339 24.343 24.337 24.366 24.375 24.357 24.366 24.373 24.38 24.393 24.422 24.447 24.457 24.485 24.481 24.499 24.536 24.541 24.557 24.581 24.597 24.591 24.615 24.643 24.637 24.635 24.633 24.645 24.647 24.661 24.666 24.672 24.663 24.687 24.688 24.683 24.685 24.693 24.703 24.711 24.695 24.693 24.667 24.666 24.647 24.664 24.647 24.656 24.628 24.635 24.63 24.628 24.616 24.616 24.63 24.625 24.623 24.63 24.635 24.69 24.693 24.683 24.676 24.673 24.68 24.665 24.616 24.65 24.576 24.602 24.568 24.626 24.585 24.658 24.613 24.658 24.624 24.653 24.629 24.638 24.636 24.637 24.637 24.62 24.639 24.616 24.632 24.625 24.645 24.661 24.651 24.681 24.666 24.661 24.631 24.67 24.635 24.644 24.619 24.617 24.613 24.547 24.546 24.48 24.485 24.479 24.404 24.463 24.44 24.073 24.391 24.459 24.546 24.589 24.57 24.561 24.575 24.552 24.569 24.568 24.644 24.568 24.577 24.576 24.622 24.599 24.682 24.653 24.632 24.643 24.663 24.685 24.68 24.711 24.704 24.72 24.667 24.686 24.679 24.681 24.677 24.703 24.7 24.717 24.72 24.727 24.76 24.763 24.754 24.802 24.843 24.895 24.889 24.94 24.942 24.94 24.963 24.948 25.013 24.995 25.07 25.071 25.069 25.114 25.096 25.128 25.133 25.166 25.153 25.183 25.155 25.142 25.175 25.158 25.207 25.202 25.201 25.206 25.218 25.234 25.252 25.26 25.254 25.259 25.224 25.277 25.278 25.323 25.304 25.287 25.26 25.18 25.19 25.231 25.247 25.261 25.225 25.257 25.215
26.646 26.607 26.51 29.26 31.028 31.262 31.073 30.846 30.629 30.349 30.214 27.693 26.105 26.041 26.079 26.656 26.528 25.862 25.27 25.065 24.901 24.808 24.746 24.709 24.682 24.659 24.637 24.636 24.708 24.745 24.762 24.78 24.819 24.809 24.763 24.752 24.715 24.664 24.609 24.552 24.404 24.185 23.882 23.952 23.924 24 24.089 24.191 24.247 24.271 24.284 24.284 24.296 24.289 24.282 24.279 24.254 24.234 24.216 24.206 24.215 24.19 24.17 24.173 24.188 24.156 24.125 24.14 24.134 24.131 24.109 24.097 24.089 24.052 23.973 23.974 23.974 23.989 24.014 24.05 24.087 24.094 24.076 24.08 24.078 24.097 24.087 24.114 24.094 24.102 24.098 24.097 24.091 24.092 24.098 24.105 24.119 24.136 24.179 24.23 24.27 24.269 24.219 24.14 24.091 24.086 24.151 23.923 24.28 24.453 24.457 24.395 24.369 24.331 24.318 24.301 24.288 24.246 24.225 24.22 24.231 24.261 24.266 24.286 24.294 24.296 24.322 24.34 24.353 24.358 24.361 24.371 24.363 24.361 24.346 24.325 24.32 24.329 24.348 24.342 24.337 24.322 24.316 24.337 24.331 24.315 24.334 24.335 24.341 24.344 24.323 24.322 24.301 24.281 24.296 24.264 24.268 24.266 24.266 24.264 24.261 24.238 24.245 24.25 24.277 24.285 24.266 24.255 24.289 24.284 24.276 24.278 24.265 24.237 24.222 24.195 24.168 24.164 24.043 23.954 23.841 23.745 23.675 23.576 23.668 23.62 23.923 23.977 24.198 24.273 24.273 24.264 24.281 24.289 24.291 24.294 24.331 24.371 24.446 24.528 24.63 24.556 24.491 24.497 24.983 25.776 24.906 24.755 24.815 24.845 24.792 24.767 24.828 24.89 24.778 24.703 24.719 24.746 24.755 24.77 24.765 24.712 24.654 24.664 24.667 24.643 24.562 25.305 24.131 24.222 24.346 24.328 24.323 24.354 24.348 24.334 24.335 24.359 24.4 24.383 24.369 24.386 24.396 24.419 24.427 24.456 24.468 24.494 24.489 24.518 24.521 24.539 24.547 24.582 24.613 24.625 24.634 24.653 24.651 24.644 24.646 24.646 24.662 24.671 24.686 24.677 24.671 24.668 24.681 24.692 24.685 24.684 24.686 24.682 24.681 24.659 24.668 24.648 24.67 24.658 24.684 24.637 24.661 24.667 24.64 24.648 24.631 24.632 24.621 24.64 24.615 24.666 24.641 24.699 24.67 24.696 24.692 24.693 24.687 24.64 24.628 24.626 24.59 24.583 24.565 24.618 24.577 24.648 24.63 24.632 24.644 24.637 24.646 24.652 24.674 24.632 24.646 24.62 24.646 24.621 24.676 24.624 24.643 24.647 24.682 24.688 24.655 24.66 24.617 24.662 24.664 24.661 24.622 24.614 24.632 24.544 24.563 24.499 24.482 24.453 24.429 24.454 24.561 24.382 24.373 24.43 24.505 24.552 24.565 24.554 24.546 24.554 24.583 24.544 24.615 24.597 24.575 24.544 24.611 24.575 24.654 24.616 24.64 24.6 24.654 24.66 24.684 24.676 24.693 24.709 24.666 24.665 24.687 24.707 24.694 24.709 24.699 24.738 24.719 24.721 24.743 24.758 24.758 24.783 24.816 24.87 24.902 24.932 24.997 24.971 24.958 24.962 25.006 25.026 25.043 25.093 25.054 25.092 25.126 25.12 25.161 25.145 25.178 25.182 25.16 25.147 25.173 25.159 25.2 25.22 25.214 25.197 25.194 25.252 25.227 25.276 25.275 25.261 25.233 25.286 25.275 25.328 25.298 25.296 25.248 25.189 25.205 25.262 25.244 25.251 25.266 25.269 25.23
26.713 26.556 26.53 28.6 31.038 31.407 31.305 30.894 30.678 30.509 30.353 28.946 26.177 26.039 26.15 26.289 26.285 25.898 25.422 25.139 24.905 24.834 24.752 24.714 24.696 24.694 24.706 24.787 24.845 24.839 24.853 24.83 24.805 24.786 24.749 24.708 24.583 24.462 24.132 24.14 24.04 23.888 23.964 24.182 24.214 24.275 24.316 24.328 24.33 24.327 24.319 24.306 24.303 24.297 24.271 24.25 24.221 24.217 24.23 24.232 24.229 24.198 24.195 24.19 24.193 24.175 24.145 24.155 24.13 24.102 24.095 24.096 24.063 24.03 24.016 24.004 24.019 24.03 24.042 24.083 24.102 24.126 24.119 24.108 24.126 24.118 24.116 24.133 24.129 24.124 24.115 24.104 24.109 24.104 24.111 24.117 24.137 24.167 24.22 24.245 24.267 24.278 24.254 24.161 24.111 24.121 24.095 24.123 24.356 24.441 24.443 24.399 24.367 24.338 24.33 24.315 24.288 24.236 24.197 24.222 24.261 24.268 24.284 24.321 24.327 24.332 24.34 24.354 24.376 24.384 24.391 24.387 24.381 24.393 24.371 24.355 24.356 24.348 24.359 24.366 24.36 24.347 24.324 24.332 24.331 24.34 24.337 24.334 24.331 24.344 24.342 24.337 24.316 24.295 24.294 24.281 24.27 24.249 24.257 24.256 24.267 24.276 24.283 24.302 24.312 24.269 24.263 24.263 24.255 24.24 24.214 24.201 24.179 24.127 24.033 23.9 23.777 23.709 23.526 23.575 23.858 23.899 24.035 24.012 24.249 24.2 24.244 24.296 24.269 24.283 24.276 24.274 24.291 24.286 24.281 24.279 24.3 24.374 24.459 24.508 24.577 24.587 24.514 24.479 24.456 24.198 23.909 24.579 24.875 24.886 24.808 24.778 24.75 24.817 24.817 24.749 24.708 24.772 24.786 24.769 24.762 24.713 24.644 24.7 24.633 24.618 24.613 24.903 24.25 24.121 24.328 24.35 24.345 24.341 24.347 24.343 24.338 24.36 24.386 24.388 24.378 24.39 24.402 24.417 24.447 24.467 24.471 24.47 24.492 24.528 24.549 24.552 24.542 24.568 24.583 24.614 24.636 24.641 24.663 24.644 24.658 24.648 24.65 24.676 24.709 24.696 24.678 24.687 24.692 24.67 24.669 24.675 24.69 24.68 24.7 24.672 24.71 24.648 24.704 24.663 24.69 24.65 24.657 24.658 24.663 24.666 24.662 24.65 24.632 24.648 24.632 24.703 24.672 24.726 24.699 24.717 24.702 24.705 24.718 24.689 24.667 24.62 24.629 24.575 24.557 24.583 24.602 24.627 24.624 24.673 24.678 24.664 24.65 24.66 24.664 24.627 24.636 24.602 24.657 24.616 24.676 24.66 24.674 24.656 24.699 24.674 24.651 24.672 24.627 24.638 24.624 24.651 24.621 24.622 24.622 24.576 24.534 24.538 24.491 24.449 24.432 24.43 24.621 24.771 24.691 24.432 24.47 24.515 24.577 24.567 24.534 24.551 24.577 24.587 24.556 24.61 24.585 24.582 24.622 24.592 24.653 24.655 24.678 24.612 24.665 24.694 24.698 24.686 24.733 24.705 24.669 24.676 24.676 24.692 24.646 24.681 24.702 24.708 24.704 24.706 24.732 24.764 24.781 24.806 24.791 24.87 24.931 24.909 24.981 24.97 24.972 24.984 24.986 25.036 25.041 25.076 25.069 25.092 25.078 25.111 25.15 25.138 25.164 25.137 25.168 25.148 25.181 25.157 25.192 25.202 25.246 25.202 25.226 25.235 25.265 25.237 25.26 25.221 25.274 25.256 25.287 25.326 25.3 25.278 25.301 25.258 25.246 25.284 25.297 25.234 25.285 25.275 25.281
26.705 26.586 26.586 27.629 30.923 31.373 31.301 30.951 30.703 30.547 30.387 29.401 26.247 26.003 26.114 26.124 26.072 26.488 25.811 25.086 24.906 24.856 24.789 24.761 24.776 24.786 24.847 24.89 24.903 24.904 24.876 24.815 24.773 24.68 24.614 24.393 24.072 23.94 23.977 24.117 24.126 24.263 24.362 24.363 24.372 24.383 24.37 24.366 24.342 24.328 24.32 24.312 24.295 24.277 24.268 24.231 24.211 24.231 24.244 24.25 24.252 24.233 24.211 24.193 24.188 24.176 24.144 24.16 24.13 24.107 24.104 24.109 24.087 24.058 24.056 24.046 24.046 24.055 24.085 24.11 24.109 24.131 24.157 24.145 24.159 24.163 24.162 24.154 24.141 24.134 24.127 24.115 24.146 24.144 24.143 24.139 24.147 24.176 24.229 24.28 24.317 24.292 24.252 24.182 24.119 24.122 24.039 23.87 24.384 24.441 24.453 24.399 24.379 24.357 24.33 24.33 24.296 24.263 24.226 24.264 24.289 24.287 24.301 24.327 24.331 24.319 24.345 24.377 24.392 24.423 24.419 24.42 24.411 24.41 24.397 24.389 24.377 24.358 24.367 24.368 24.358 24.353 24.316 24.305 24.304 24.331 24.321 24.314 24.321 24.331 24.341 24.317 24.311 24.306 24.285 24.287 24.261 24.276 24.286 24.285 24.297 24.303 24.314 24.29 24.241 24.203 24.138 24.116 24.058 24.006 23.909 23.816 23.665 23.665 23.594 23.749 23.744 23.852 24.005 24.173 24.252 24.255 24.264 24.27 24.292 24.293 24.278 24.287 24.278 24.289 24.313 24.28 24.279 24.298 24.272 24.311 24.343 24.385 24.42 24.488 24.54 24.586 24.551 24.487 24.424 24.174 24.919 25.046 25.342 24.926 24.796 24.825 24.815 24.815 24.88 24.825 24.719 24.774 24.828 24.785 24.726 24.692 24.669 24.693 24.652 24.634 24.591 25.119 25.425 24.119 24.293 24.357 24.344 24.35 24.38 24.365 24.349 24.35 24.378 24.394 24.381 24.385 24.385 24.411 24.438 24.465 24.49 24.483 24.494 24.523 24.539 24.54 24.549 24.56 24.575 24.601 24.622 24.62 24.656 24.653 24.665 24.668 24.674 24.693 24.68 24.686 24.634 24.672 24.693 24.672 24.668 24.697 24.696 24.709 24.722 24.66 24.724 24.695 24.712 24.69 24.695 24.696 24.698 24.67 24.683 24.665 24.658 24.674 24.666 24.686 24.622 24.69 24.705 24.707 24.712 24.738 24.679 24.728 24.69 24.683 24.678 24.656 24.629 24.568 24.572 24.573 24.581 24.596 24.651 24.675 24.665 24.665 24.659 24.667 24.68 24.67 24.671 24.647 24.687 24.667 24.691 24.656 24.647 24.67 24.684 24.66 24.667 24.638 24.639 24.649 24.655 24.627 24.643 24.622 24.616 24.583 24.54 24.515 24.458 24.433 24.443 24.402 24.577 24.732 24.695 24.432 24.461 24.582 24.582 24.533 24.51 24.541 24.556 24.608 24.547 24.629 24.595 24.632 24.632 24.611 24.673 24.686 24.691 24.634 24.68 24.689 24.717 24.692 24.738 24.702 24.711 24.683 24.693 24.706 24.669 24.673 24.678 24.702 24.709 24.712 24.706 24.807 24.779 24.793 24.751 24.825 24.932 24.883 24.963 24.987 24.986 24.972 24.983 25.054 25.037 25.045 25.052 25.093 25.117 25.095 25.15 25.149 25.172 25.184 25.201 25.14 25.185 25.195 25.153 25.169 25.224 25.187 25.218 25.211 25.226 25.242 25.249 25.222 25.245 25.225 25.277 25.282 25.308 25.285 25.303 25.277 25.293 25.258 25.29 25.272 25.302 25.291 25.274
26.529 26.666 26.712 26.821 29.964 31.328 31.38 31.086 30.778 30.589 30.43 30.144 27.003 25.994 26.008 26.014 25.989 26.676 25.967 25.17 24.925 24.89 24.836 24.85 24.872 24.867 24.883 24.888 24.919 24.886 24.804 24.779 24.62 24.273 24.052 24.035 24.192 24.329 24.377 24.4 24.413 24.444 24.434 24.428 24.424 24.408 24.376 24.347 24.321 24.312 24.303 24.297 24.279 24.286 24.288 24.276 24.243 24.255 24.27 24.254 24.229 24.218 24.21 24.194 24.193 24.193 24.161 24.172 24.144 24.141 24.153 24.136 24.117 24.085 24.061 24.061 24.062 24.105 24.123 24.122 24.14 24.15 24.163 24.174 24.197 24.192 24.192 24.188 24.172 24.143 24.143 24.152 24.156 24.157 24.167 24.187 24.197 24.207 24.23 24.283 24.319 24.308 24.269 24.208 24.152 24.141 24.031 23.738 24.411 24.464 24.46 24.44 24.394 24.386 24.344 24.336 24.285 24.249 24.253 24.277 24.295 24.314 24.315 24.328 24.343 24.335 24.349 24.391 24.405 24.445 24.439 24.459 24.444 24.416 24.403 24.401 24.39 24.334 24.343 24.356 24.334 24.329 24.34 24.33 24.314 24.331 24.333 24.336 24.334 24.32 24.326 24.328 24.329 24.323 24.29 24.255 24.2 24.265 24.283 24.284 24.264 24.22 24.203 24.115 24.013 23.862 23.755 23.688 23.587 23.61 23.715 23.681 23.945 24.01 24.098 24.184 24.316 24.313 24.345 24.325 24.326 24.312 24.311 24.311 24.303 24.305 24.291 24.296 24.281 24.265 24.295 24.283 24.291 24.308 24.315 24.336 24.348 24.365 24.389 24.484 24.538 24.583 24.563 24.523 24.493 24.176 24.776 25.579 25.78 25.061 24.779 24.795 24.804 24.847 24.871 24.911 24.76 24.806 24.814 24.801 24.751 24.721 24.685 24.671 24.664 24.635 24.545 24.572 24.748 24.08 24.265 24.357 24.371 24.367 24.385 24.365 24.358 24.366 24.382 24.38 24.375 24.389 24.39 24.404 24.43 24.453 24.481 24.493 24.516 24.514 24.528 24.534 24.547 24.574 24.611 24.627 24.637 24.635 24.671 24.675 24.672 24.679 24.668 24.689 24.632 24.666 24.652 24.678 24.668 24.689 24.685 24.684 24.694 24.691 24.678 24.687 24.701 24.729 24.716 24.703 24.694 24.705 24.675 24.665 24.67 24.675 24.686 24.697 24.683 24.656 24.643 24.66 24.684 24.697 24.688 24.689 24.715 24.705 24.685 24.694 24.71 24.649 24.659 24.59 24.631 24.6 24.632 24.593 24.673 24.695 24.68 24.683 24.694 24.694 24.7 24.679 24.643 24.67 24.655 24.653 24.639 24.681 24.663 24.667 24.644 24.639 24.665 24.653 24.691 24.658 24.684 24.661 24.658 24.606 24.563 24.582 24.526 24.508 24.48 24.463 24.419 24.398 24.533 25.015 24.321 24.319 24.442 24.499 24.554 24.537 24.522 24.551 24.541 24.618 24.562 24.657 24.612 24.638 24.633 24.659 24.624 24.693 24.67 24.668 24.694 24.717 24.727 24.694 24.736 24.726 24.745 24.696 24.707 24.7 24.72 24.678 24.706 24.713 24.713 24.709 24.727 24.775 24.793 24.801 24.823 24.82 24.92 24.925 24.967 25 24.983 24.985 24.994 25.019 25.009 25.035 25.078 25.082 25.088 25.107 25.137 25.148 25.142 25.116 25.187 25.147 25.178 25.202 25.156 25.185 25.198 25.198 25.209 25.232 25.261 25.233 25.22 25.219 25.217 25.208 25.257 25.26 25.313 25.275 25.294 25.286 25.264 25.293 25.307 25.3 25.294 25.305 25.295
26.534 26.752 26.65 26.466 29.156 31.179 31.393 31.116 30.834 30.631 30.481 30.251 28.169 26.072 25.998 26.025 26.046 26.129 25.933 25.271 25.014 25.028 24.909 24.927 24.922 24.889 24.86 24.877 24.904 24.879 24.534 24.16 24.222 24.313 24.4 24.501 24.509 24.511 24.494 24.506 24.503 24.499 24.475 24.453 24.437 24.406 24.373 24.334 24.317 24.305 24.297 24.306 24.3 24.302 24.302 24.274 24.277 24.272 24.268 24.257 24.23 24.198 24.219 24.201 24.214 24.188 24.193 24.211 24.195 24.183 24.197 24.166 24.151 24.117 24.095 24.082 24.091 24.125 24.153 24.157 24.162 24.179 24.193 24.197 24.216 24.21 24.201 24.212 24.199 24.179 24.162 24.169 24.194 24.182 24.203 24.212 24.2 24.206 24.266 24.302 24.324 24.328 24.282 24.234 24.181 24.173 23.838 23.958 24.351 24.475 24.44 24.417 24.385 24.356 24.343 24.316 24.295 24.269 24.289 24.291 24.302 24.305 24.315 24.335 24.366 24.357 24.377 24.392 24.395 24.416 24.432 24.439 24.406 24.402 24.397 24.389 24.368 24.342 24.325 24.371 24.38 24.354 24.339 24.349 24.327 24.301 24.277 24.33 24.339 24.343 24.377 24.341 24.319 24.317 24.268 24.239 24.265 24.225 24.162 24.138 24.002 23.836 23.813 23.656 23.56 23.656 23.655 23.732 24.003 24.024 24.248 24.239 24.349 24.362 24.389 24.363 24.371 24.371 24.353 24.342 24.335 24.311 24.304 24.29 24.287 24.299 24.296 24.285 24.285 24.284 24.284 24.298 24.319 24.321 24.306 24.338 24.358 24.37 24.405 24.485 24.538 24.577 24.578 24.532 24.501 24.267 24.285 25.476 26.038 25.342 24.824 24.785 24.809 24.863 24.864 24.845 24.814 24.838 24.831 24.802 24.799 24.779 24.754 24.722 24.687 24.663 24.621 24.727 27.79 25.256 24.281 24.355 24.379 24.403 24.394 24.372 24.35 24.373 24.381 24.376 24.368 24.373 24.399 24.412 24.424 24.436 24.479 24.502 24.518 24.499 24.525 24.536 24.553 24.587 24.609 24.617 24.632 24.632 24.62 24.653 24.67 24.687 24.649 24.68 24.68 24.681 24.666 24.681 24.659 24.706 24.713 24.691 24.675 24.703 24.692 24.71 24.7 24.719 24.696 24.705 24.685 24.711 24.701 24.676 24.706 24.699 24.706 24.67 24.675 24.665 24.656 24.631 24.691 24.683 24.719 24.689 24.726 24.714 24.686 24.708 24.688 24.693 24.682 24.611 24.632 24.616 24.642 24.622 24.689 24.693 24.704 24.706 24.675 24.709 24.675 24.667 24.633 24.682 24.621 24.683 24.646 24.698 24.684 24.658 24.64 24.677 24.666 24.654 24.702 24.672 24.69 24.639 24.66 24.631 24.561 24.571 24.527 24.514 24.462 24.448 24.422 24.397 24.411 25.195 24.132 24.244 24.407 24.486 24.535 24.529 24.527 24.547 24.543 24.594 24.621 24.643 24.644 24.636 24.608 24.68 24.643 24.704 24.681 24.68 24.677 24.741 24.71 24.736 24.745 24.754 24.763 24.693 24.705 24.704 24.718 24.709 24.704 24.718 24.703 24.697 24.735 24.762 24.778 24.795 24.848 24.843 24.919 24.971 24.952 25.057 25.039 25.026 25.059 25.058 25.046 25.065 25.117 25.1 25.084 25.139 25.115 25.149 25.136 25.138 25.149 25.169 25.161 25.204 25.154 25.189 25.166 25.23 25.203 25.221 25.261 25.229 25.218 25.232 25.218 25.213 25.197 25.242 25.283 25.265 25.306 25.326 25.264 25.279 25.288 25.316 25.284 25.321 25.308
26.416 26.539 26.699 26.463 27.514 31.145 31.428 31.264 30.885 30.657 30.488 30.34 29.248 26.236 25.995 26.033 26.032 26.226 26.088 25.551 25.096 25.01 24.959 24.964 24.894 24.867 24.872 24.894 24.821 24.726 24.447 24.457 24.572 24.621 24.61 24.6 24.578 24.569 24.563 24.549 24.543 24.516 24.474 24.436 24.414 24.377 24.351 24.351 24.346 24.341 24.337 24.323 24.318 24.315 24.303 24.286 24.298 24.295 24.273 24.289 24.256 24.235 24.225 24.206 24.215 24.21 24.206 24.212 24.188 24.213 24.201 24.191 24.171 24.144 24.13 24.121 24.133 24.155 24.175 24.195 24.195 24.208 24.213 24.213 24.215 24.228 24.22 24.228 24.217 24.21 24.187 24.187 24.198 24.201 24.235 24.222 24.21 24.217 24.281 24.314 24.337 24.343 24.306 24.252 24.211 24.207 23.904 23.867 24.334 24.485 24.444 24.415 24.4 24.374 24.355 24.31 24.308 24.31 24.322 24.312 24.309 24.319 24.329 24.349 24.384 24.38 24.4 24.401 24.408 24.413 24.435 24.445 24.45 24.425 24.402 24.404 24.392 24.386 24.376 24.406 24.406 24.399 24.393 24.422 24.4 24.337 24.285 24.357 24.34 24.323 24.33 24.273 24.208 24.227 24.11 24.05 23.986 23.836 23.665 23.609 23.551 23.725 23.742 23.851 24.198 24.124 24.339 24.354 24.397 24.375 24.392 24.389 24.384 24.366 24.382 24.383 24.379 24.353 24.337 24.336 24.338 24.335 24.311 24.31 24.299 24.293 24.292 24.296 24.297 24.305 24.305 24.325 24.323 24.318 24.32 24.34 24.364 24.389 24.411 24.48 24.542 24.579 24.603 24.574 24.535 24.441 24.238 24.923 25.034 24.901 24.904 24.809 24.835 24.843 24.855 24.871 24.84 24.815 24.842 24.873 24.847 24.835 24.84 24.822 24.726 24.687 24.671 24.59 25.466 25.58 24.27 24.353 24.401 24.451 24.406 24.4 24.382 24.381 24.397 24.402 24.386 24.377 24.401 24.411 24.415 24.432 24.472 24.493 24.506 24.519 24.533 24.554 24.564 24.572 24.595 24.608 24.617 24.632 24.631 24.658 24.655 24.637 24.668 24.679 24.686 24.691 24.701 24.677 24.729 24.707 24.69 24.721 24.715 24.719 24.699 24.748 24.692 24.73 24.701 24.708 24.681 24.708 24.685 24.713 24.702 24.69 24.711 24.687 24.693 24.659 24.693 24.632 24.709 24.663 24.733 24.72 24.732 24.73 24.721 24.711 24.648 24.665 24.653 24.635 24.627 24.632 24.669 24.639 24.666 24.669 24.687 24.66 24.683 24.681 24.653 24.678 24.64 24.681 24.636 24.672 24.642 24.69 24.672 24.697 24.716 24.719 24.713 24.707 24.689 24.648 24.629 24.618 24.63 24.611 24.582 24.567 24.526 24.495 24.474 24.451 24.411 24.418 24.438 24.592 25.654 24.23 24.327 24.439 24.495 24.535 24.523 24.506 24.532 24.541 24.61 24.586 24.655 24.623 24.625 24.689 24.668 24.689 24.693 24.684 24.625 24.696 24.704 24.721 24.716 24.746 24.733 24.739 24.713 24.695 24.732 24.709 24.698 24.711 24.721 24.696 24.736 24.738 24.786 24.826 24.856 24.873 24.936 24.998 24.989 25.006 25.052 25.074 25.093 25.072 25.152 25.1 25.097 25.085 25.122 25.173 25.152 25.2 25.16 25.164 25.152 25.229 25.183 25.191 25.168 25.191 25.194 25.251 25.215 25.235 25.227 25.228 25.194 25.238 25.203 25.235 25.196 25.225 25.261 25.28 25.271 25.317 25.247 25.295 25.292 25.334 25.283 25.342 25.308
27.241 26.48 26.636 26.587 26.802 30.097 31.357 31.324 30.993 30.72 30.535 30.304 30.074 26.901 25.968 25.993 25.962 26.3 26.171 25.867 25.297 25.028 25.103 25 24.972 24.953 24.9 24.866 24.767 24.687 24.627 24.609 24.633 24.647 24.645 24.632 24.625 24.611 24.583 24.563 24.546 24.498 24.472 24.428 24.399 24.38 24.378 24.365 24.369 24.35 24.347 24.358 24.345 24.329 24.317 24.296 24.313 24.306 24.293 24.262 24.263 24.257 24.256 24.227 24.244 24.245 24.273 24.247 24.208 24.221 24.231 24.221 24.225 24.192 24.167 24.162 24.162 24.175 24.184 24.208 24.216 24.224 24.24 24.243 24.238 24.237 24.265 24.253 24.233 24.211 24.185 24.175 24.198 24.216 24.222 24.214 24.226 24.237 24.28 24.326 24.345 24.355 24.308 24.266 24.241 24.238 24.118 24.005 24.387 24.487 24.453 24.436 24.417 24.369 24.355 24.317 24.339 24.358 24.347 24.35 24.325 24.349 24.357 24.364 24.353 24.377 24.404 24.424 24.436 24.433 24.449 24.47 24.461 24.468 24.443 24.444 24.421 24.418 24.442 24.448 24.452 24.439 24.435 24.441 24.373 24.335 24.356 24.24 24.187 24.172 24.085 24 23.81 23.798 23.616 23.517 23.692 23.728 23.75 23.864 24.037 24.267 24.305 24.374 24.388 24.385 24.366 24.368 24.371 24.354 24.358 24.373 24.358 24.354 24.356 24.373 24.359 24.366 24.35 24.349 24.35 24.349 24.321 24.3 24.316 24.308 24.303 24.315 24.322 24.315 24.33 24.335 24.347 24.349 24.353 24.359 24.39 24.416 24.456 24.516 24.578 24.59 24.612 24.614 24.547 24.503 24.056 23.561 24.258 25.385 25.227 24.83 24.832 24.856 24.858 24.879 24.824 24.79 24.836 24.877 24.866 24.84 24.818 24.778 24.735 24.722 24.707 24.633 24.948 25.345 23.984 24.308 24.39 24.439 24.4 24.396 24.382 24.39 24.41 24.415 24.396 24.383 24.413 24.428 24.424 24.457 24.476 24.497 24.497 24.54 24.554 24.56 24.546 24.57 24.6 24.624 24.617 24.635 24.646 24.64 24.673 24.642 24.668 24.662 24.714 24.687 24.724 24.682 24.718 24.694 24.725 24.711 24.713 24.695 24.692 24.742 24.709 24.729 24.695 24.705 24.682 24.693 24.684 24.716 24.684 24.712 24.708 24.699 24.716 24.665 24.704 24.692 24.699 24.688 24.719 24.723 24.733 24.732 24.709 24.738 24.63 24.68 24.615 24.686 24.615 24.664 24.654 24.665 24.652 24.728 24.701 24.695 24.688 24.695 24.69 24.69 24.669 24.689 24.666 24.681 24.665 24.703 24.746 24.704 24.711 24.697 24.662 24.672 24.66 24.635 24.607 24.645 24.606 24.615 24.602 24.555 24.544 24.497 24.473 24.44 24.411 24.404 24.368 24.65 24.606 23.838 24.359 24.453 24.505 24.522 24.543 24.472 24.538 24.52 24.61 24.547 24.63 24.612 24.623 24.649 24.655 24.644 24.705 24.679 24.609 24.661 24.676 24.719 24.685 24.732 24.722 24.733 24.695 24.723 24.71 24.711 24.692 24.693 24.723 24.716 24.726 24.696 24.789 24.817 24.868 24.901 24.95 25.021 25.008 25.008 25.099 25.133 25.162 25.116 25.17 25.167 25.165 25.148 25.153 25.217 25.182 25.19 25.186 25.15 25.237 25.235 25.206 25.205 25.199 25.186 25.204 25.241 25.23 25.212 25.224 25.2 25.205 25.247 25.22 25.232 25.233 25.253 25.237 25.264 25.254 25.298 25.268 25.286 25.303 25.314 25.284 25.329 25.309
27.826 26.429 26.329 26.248 26.364 29.433 31.233 31.359 31.081 30.743 30.082 28.545 28.932 26.664 25.937 25.917 25.904 26.122 26.227 26.172 25.399 25.033 25.062 24.97 25.024 24.957 24.906 24.777 24.705 24.678 24.656 24.65 24.649 24.653 24.65 24.648 24.634 24.614 24.575 24.56 24.519 24.483 24.47 24.445 24.428 24.416 24.398 24.395 24.384 24.354 24.326 24.362 24.365 24.352 24.333 24.324 24.313 24.311 24.332 24.301 24.289 24.289 24.267 24.272 24.283 24.28 24.296 24.291 24.272 24.269 24.258 24.235 24.268 24.251 24.199 24.201 24.194 24.201 24.217 24.231 24.234 24.243 24.247 24.25 24.244 24.233 24.254 24.253 24.244 24.227 24.202 24.192 24.202 24.223 24.223 24.218 24.224 24.243 24.278 24.32 24.376 24.363 24.328 24.285 24.253 24.229 24.196 24.107 24.404 24.484 24.475 24.469 24.458 24.401 24.37 24.362 24.384 24.384 24.382 24.353 24.334 24.336 24.346 24.39 24.379 24.397 24.415 24.44 24.453 24.46 24.462 24.491 24.526 24.502 24.488 24.466 24.47 24.456 24.434 24.42 24.449 24.408 24.414 24.5 24.374 24.107 23.947 23.847 23.638 23.62 23.646 23.648 23.762 23.92 24.051 24.197 24.259 24.297 24.303 24.328 24.347 24.36 24.378 24.379 24.396 24.366 24.355 24.356 24.344 24.352 24.348 24.379 24.389 24.372 24.371 24.377 24.364 24.366 24.365 24.355 24.354 24.336 24.339 24.353 24.339 24.339 24.356 24.364 24.343 24.332 24.347 24.367 24.385 24.399 24.408 24.416 24.436 24.477 24.499 24.53 24.587 24.615 24.628 24.636 24.568 24.489 24.287 23.974 24.708 24.926 24.948 24.85 24.827 24.864 24.835 24.854 24.819 24.754 24.795 24.871 24.878 24.841 24.817 24.811 24.815 24.753 24.722 24.711 24.627 25.78 24.519 24.248 24.385 24.438 24.428 24.418 24.407 24.407 24.421 24.436 24.429 24.415 24.426 24.449 24.435 24.46 24.487 24.518 24.517 24.525 24.531 24.557 24.57 24.595 24.589 24.627 24.624 24.64 24.654 24.63 24.663 24.647 24.687 24.635 24.707 24.703 24.714 24.718 24.724 24.713 24.733 24.714 24.716 24.732 24.739 24.75 24.733 24.712 24.702 24.714 24.698 24.702 24.728 24.707 24.698 24.703 24.723 24.691 24.67 24.664 24.66 24.682 24.688 24.677 24.702 24.716 24.736 24.767 24.727 24.708 24.678 24.693 24.66 24.658 24.664 24.699 24.693 24.705 24.657 24.727 24.696 24.687 24.712 24.716 24.709 24.703 24.727 24.707 24.71 24.687 24.69 24.657 24.674 24.674 24.674 24.655 24.633 24.631 24.596 24.631 24.589 24.593 24.591 24.61 24.587 24.531 24.551 24.511 24.491 24.457 24.415 24.381 24.349 25.038 25.092 23.827 24.256 24.415 24.496 24.526 24.538 24.487 24.526 24.502 24.564 24.553 24.61 24.579 24.627 24.62 24.655 24.62 24.678 24.668 24.648 24.643 24.67 24.707 24.658 24.702 24.698 24.718 24.688 24.709 24.671 24.737 24.719 24.709 24.714 24.691 24.717 24.742 24.776 24.848 24.861 24.923 24.936 25.03 25.031 25.034 25.063 25.102 25.117 25.149 25.158 25.195 25.185 25.183 25.191 25.225 25.202 25.186 25.191 25.193 25.228 25.24 25.22 25.201 25.225 25.183 25.239 25.257 25.225 25.212 25.231 25.227 25.228 25.237 25.237 25.232 25.236 25.25 25.242 25.313 25.277 25.253 25.274 25.261 25.309 25.31 25.303 25.304 25.297
28.683 26.444 26.232 26.19 26.273 27.75 30.998 31.411 31.191 30.098 26.776 26.371 26.135 25.888 25.872 25.829 25.771 25.835 25.816 25.658 25.459 25.385 25.14 24.995 24.959 24.874 24.801 24.743 24.728 24.722 24.708 24.686 24.67 24.672 24.647 24.643 24.631 24.594 24.561 24.561 24.532 24.491 24.462 24.449 24.433 24.43 24.446 24.416 24.391 24.377 24.373 24.376 24.368 24.361 24.36 24.358 24.353 24.332 24.351 24.357 24.328 24.307 24.295 24.295 24.3 24.312 24.32 24.319 24.332 24.323 24.312 24.277 24.27 24.267 24.25 24.252 24.233 24.221 24.229 24.255 24.257 24.273 24.276 24.268 24.256 24.254 24.264 24.253 24.253 24.228 24.219 24.208 24.217 24.227 24.234 24.226 24.239 24.243 24.281 24.351 24.367 24.359 24.345 24.305 24.277 24.267 24.07 24.162 24.464 24.499 24.496 24.48 24.452 24.423 24.397 24.383 24.36 24.372 24.359 24.345 24.331 24.356 24.359 24.379 24.396 24.427 24.454 24.482 24.484 24.481 24.488 24.527 24.546 24.53 24.501 24.482 24.469 24.397 24.277 24.282 24.134 24.006 23.988 23.899 23.766 23.533 23.766 23.528 23.74 24.005 24.124 24.388 24.374 24.481 24.464 24.502 24.467 24.455 24.42 24.405 24.385 24.366 24.363 24.355 24.365 24.344 24.354 24.37 24.364 24.369 24.371 24.379 24.379 24.38 24.382 24.363 24.355 24.385 24.395 24.413 24.423 24.419 24.401 24.391 24.386 24.381 24.389 24.383 24.371 24.371 24.386 24.405 24.428 24.428 24.432 24.45 24.465 24.494 24.522 24.552 24.59 24.635 24.642 24.649 24.588 24.509 24.434 24.448 25.023 24.83 24.826 24.856 24.827 24.881 24.883 24.887 24.884 24.772 24.72 24.913 24.894 24.852 24.841 24.804 24.769 24.738 24.741 24.696 24.564 25.747 25.221 24.215 24.365 24.428 24.447 24.456 24.441 24.423 24.42 24.415 24.423 24.415 24.416 24.423 24.428 24.412 24.485 24.497 24.522 24.54 24.533 24.547 24.55 24.603 24.628 24.639 24.656 24.627 24.65 24.633 24.694 24.642 24.676 24.669 24.701 24.709 24.72 24.717 24.713 24.718 24.745 24.765 24.744 24.706 24.747 24.739 24.756 24.726 24.714 24.697 24.728 24.678 24.718 24.696 24.68 24.691 24.675 24.672 24.653 24.625 24.606 24.67 24.647 24.73 24.699 24.738 24.724 24.725 24.726 24.721 24.718 24.701 24.712 24.696 24.682 24.71 24.716 24.728 24.737 24.759 24.733 24.722 24.726 24.701 24.738 24.724 24.732 24.687 24.694 24.626 24.668 24.609 24.647 24.612 24.651 24.633 24.618 24.655 24.601 24.628 24.601 24.604 24.585 24.597 24.602 24.568 24.561 24.537 24.498 24.448 24.43 24.418 24.371 24.458 25.213 24.385 23.976 24.325 24.451 24.533 24.564 24.558 24.525 24.542 24.583 24.635 24.618 24.642 24.634 24.612 24.669 24.619 24.653 24.686 24.672 24.63 24.662 24.659 24.687 24.698 24.693 24.713 24.66 24.691 24.672 24.738 24.724 24.668 24.713 24.665 24.728 24.716 24.774 24.811 24.858 24.915 24.909 24.985 25.027 25.027 25.053 25.107 25.128 25.158 25.162 25.215 25.194 25.215 25.216 25.207 25.217 25.161 25.202 25.191 25.209 25.207 25.186 25.186 25.219 25.188 25.226 25.227 25.242 25.198 25.241 25.219 25.249 25.219 25.274 25.246 25.285 25.271 25.286 25.283 25.323 25.292 25.309 25.264 25.323 25.3 25.349 25.304 25.32
29.368 26.506 26.189 26.171 26.146 26.65 30.579 31.437 31.315 30.427 26.738 25.92 25.891 25.814 25.775 25.725 25.703 25.716 25.678 25.626 25.718 25.619 26.967 25.764 24.852 24.796 24.799 24.774 24.755 24.74 24.723 24.709 24.687 24.676 24.664 24.643 24.655 24.616 24.592 24.578 24.54 24.502 24.459 24.46 24.46 24.422 24.419 24.427 24.416 24.414 24.404 24.408 24.418 24.405 24.393 24.373 24.375 24.361 24.359 24.361 24.354 24.328 24.298 24.319 24.339 24.346 24.322 24.317 24.352 24.36 24.344 24.334 24.302 24.271 24.271 24.274 24.256 24.247 24.238 24.251 24.252 24.273 24.281 24.276 24.26 24.261 24.256 24.25 24.248 24.241 24.232 24.221 24.227 24.257 24.235 24.22 24.237 24.264 24.298 24.34 24.369 24.372 24.357 24.318 24.298 24.28 24.082 24.035 24.497 24.495 24.519 24.49 24.473 24.452 24.422 24.41 24.374 24.362 24.372 24.38 24.367 24.372 24.393 24.413 24.433 24.478 24.487 24.508 24.524 24.528 24.533 24.519 24.569 24.443 24.412 24.34 24.253 24.04 23.697 23.718 23.522 23.656 23.7 24.013 24.053 24.184 24.429 24.386 24.498 24.592 24.548 24.533 24.527 24.538 24.522 24.507 24.454 24.45 24.423 24.396 24.382 24.359 24.363 24.359 24.354 24.354 24.357 24.371 24.367 24.363 24.371 24.371 24.367 24.37 24.387 24.39 24.393 24.417 24.425 24.475 24.483 24.474 24.448 24.437 24.438 24.427 24.408 24.424 24.424 24.414 24.417 24.434 24.428 24.442 24.45 24.477 24.497 24.522 24.551 24.57 24.596 24.623 24.643 24.65 24.605 24.485 24.429 24.015 24.067 24.779 25 24.89 24.842 24.871 24.891 24.922 24.91 24.825 24.747 24.833 24.902 24.898 24.856 24.815 24.769 24.74 24.696 24.658 24.592 24.823 25.088 24.27 24.342 24.416 24.448 24.484 24.412 24.401 24.385 24.38 24.4 24.396 24.409 24.394 24.448 24.414 24.478 24.46 24.528 24.522 24.534 24.575 24.59 24.599 24.603 24.629 24.618 24.629 24.633 24.66 24.69 24.691 24.7 24.71 24.705 24.718 24.701 24.722 24.716 24.728 24.739 24.766 24.748 24.727 24.746 24.712 24.782 24.733 24.731 24.676 24.709 24.679 24.706 24.667 24.642 24.678 24.663 24.659 24.635 24.659 24.626 24.697 24.698 24.718 24.714 24.75 24.749 24.722 24.731 24.714 24.719 24.684 24.746 24.69 24.738 24.696 24.757 24.759 24.765 24.754 24.748 24.729 24.725 24.711 24.728 24.678 24.702 24.672 24.691 24.653 24.657 24.634 24.643 24.653 24.65 24.648 24.613 24.646 24.622 24.615 24.626 24.633 24.62 24.598 24.566 24.572 24.552 24.53 24.498 24.467 24.414 24.393 24.386 24.498 24.96 24.471 23.99 24.367 24.482 24.576 24.609 24.598 24.545 24.585 24.572 24.647 24.597 24.66 24.641 24.653 24.674 24.653 24.694 24.687 24.702 24.67 24.678 24.683 24.704 24.67 24.697 24.688 24.673 24.684 24.711 24.715 24.704 24.684 24.714 24.689 24.761 24.755 24.778 24.815 24.847 24.901 24.895 24.913 25.019 24.977 25.023 25.086 25.117 25.152 25.136 25.2 25.167 25.214 25.19 25.184 25.229 25.148 25.217 25.17 25.169 25.147 25.177 25.193 25.201 25.206 25.184 25.237 25.267 25.232 25.274 25.274 25.271 25.245 25.277 25.255 25.266 25.264 25.329 25.315 25.342 25.304 25.335 25.265 25.315 25.266 25.353 25.329 25.343
30.192 27.456 26.277 26.2 26.164 26.22 29.635 31.272 31.28 29.937 26.792 25.881 25.841 25.752 25.678 25.624 25.593 25.574 25.575 25.591 25.682 25.466 25.726 25.079 24.772 24.805 24.816 24.795 24.778 24.744 24.722 24.713 24.697 24.713 24.707 24.684 24.655 24.635 24.62 24.573 24.538 24.522 24.475 24.431 24.447 24.429 24.422 24.431 24.441 24.432 24.437 24.446 24.448 24.436 24.411 24.396 24.381 24.381 24.379 24.375 24.37 24.368 24.36 24.357 24.383 24.381 24.369 24.35 24.367 24.375 24.36 24.35 24.329 24.296 24.273 24.271 24.256 24.248 24.237 24.257 24.251 24.269 24.275 24.265 24.266 24.264 24.268 24.262 24.238 24.247 24.261 24.236 24.213 24.239 24.232 24.241 24.253 24.271 24.3 24.351 24.379 24.397 24.368 24.315 24.299 24.296 24.079 23.741 24.508 24.518 24.539 24.516 24.496 24.493 24.462 24.439 24.432 24.397 24.39 24.402 24.393 24.395 24.422 24.434 24.46 24.473 24.515 24.356 24.345 24.327 24.33 24.041 23.861 23.981 23.74 23.737 23.757 23.917 24.054 24.061 24.208 24.396 24.583 24.609 24.67 24.685 24.669 24.625 24.597 24.582 24.548 24.522 24.521 24.538 24.505 24.481 24.472 24.458 24.443 24.42 24.404 24.378 24.375 24.356 24.36 24.354 24.372 24.368 24.37 24.384 24.367 24.357 24.372 24.394 24.409 24.419 24.425 24.441 24.453 24.484 24.508 24.507 24.5 24.5 24.49 24.473 24.426 24.43 24.443 24.445 24.445 24.453 24.45 24.467 24.482 24.491 24.515 24.548 24.572 24.57 24.581 24.612 24.631 24.65 24.616 24.508 24.444 24.249 25.165 24.966 24.993 24.981 24.918 24.982 24.913 24.942 24.922 24.888 24.764 24.808 24.918 24.934 24.877 24.84 24.77 24.805 24.684 24.65 24.62 24.536 24.422 24.117 24.293 24.403 24.397 24.371 24.388 24.381 24.339 24.4 24.398 24.416 24.418 24.421 24.456 24.45 24.469 24.476 24.524 24.523 24.566 24.587 24.608 24.638 24.637 24.65 24.62 24.67 24.67 24.694 24.718 24.728 24.685 24.743 24.702 24.745 24.673 24.72 24.702 24.744 24.735 24.739 24.74 24.719 24.738 24.696 24.769 24.746 24.752 24.703 24.707 24.672 24.67 24.651 24.664 24.675 24.689 24.683 24.643 24.689 24.67 24.686 24.671 24.719 24.717 24.73 24.706 24.713 24.705 24.708 24.722 24.696 24.761 24.744 24.806 24.762 24.798 24.755 24.765 24.715 24.732 24.717 24.675 24.69 24.682 24.679 24.662 24.673 24.662 24.661 24.649 24.666 24.656 24.674 24.655 24.652 24.66 24.635 24.633 24.641 24.648 24.618 24.636 24.608 24.6 24.588 24.546 24.556 24.495 24.461 24.442 24.406 24.405 24.348 25.112 25.527 24.238 24.459 24.504 24.592 24.626 24.659 24.59 24.64 24.599 24.69 24.66 24.686 24.684 24.724 24.722 24.698 24.706 24.73 24.714 24.681 24.685 24.698 24.704 24.676 24.717 24.75 24.722 24.678 24.717 24.716 24.708 24.698 24.723 24.724 24.739 24.732 24.751 24.762 24.842 24.853 24.89 24.875 24.982 24.979 25.01 25.068 25.055 25.119 25.119 25.173 25.152 25.168 25.181 25.157 25.193 25.181 25.194 25.176 25.169 25.191 25.2 25.2 25.203 25.235 25.218 25.227 25.26 25.242 25.263 25.278 25.235 25.265 25.278 25.259 25.286 25.258 25.322 25.3 25.35 25.37 25.348 25.357 25.325 25.301 25.358 25.353 25.36
30.373 28.81 26.394 26.235 26.306 26.272 26.974 28.322 27.992 26.298 25.869 25.837 25.805 25.723 25.642 25.593 25.58 25.593 25.607 25.613 25.583 25.18 24.972 24.795 24.806 24.827 24.821 24.802 24.773 24.747 24.727 24.714 24.714 24.735 24.73 24.696 24.662 24.662 24.625 24.59 24.565 24.527 24.494 24.473 24.475 24.46 24.452 24.458 24.475 24.458 24.46 24.467 24.474 24.471 24.455 24.417 24.417 24.416 24.408 24.41 24.37 24.369 24.39 24.411 24.43 24.396 24.395 24.405 24.429 24.399 24.373 24.343 24.34 24.318 24.295 24.265 24.259 24.255 24.259 24.261 24.258 24.276 24.288 24.274 24.277 24.277 24.273 24.284 24.287 24.279 24.261 24.257 24.246 24.256 24.261 24.26 24.275 24.273 24.317 24.357 24.411 24.422 24.378 24.34 24.31 24.29 23.924 23.845 24.437 24.591 24.559 24.541 24.528 24.536 24.491 24.442 24.426 24.411 24.411 24.428 24.42 24.415 24.434 24.342 24.283 24.181 23.926 23.831 23.884 23.845 23.86 24.149 24.161 24.117 24.233 24.324 24.29 24.352 24.454 24.626 24.618 24.65 24.667 24.674 24.684 24.693 24.667 24.653 24.648 24.607 24.561 24.552 24.551 24.552 24.541 24.52 24.509 24.471 24.433 24.411 24.403 24.387 24.384 24.382 24.387 24.398 24.394 24.381 24.373 24.374 24.356 24.358 24.375 24.393 24.417 24.439 24.462 24.48 24.49 24.505 24.534 24.541 24.529 24.52 24.484 24.461 24.449 24.454 24.45 24.439 24.464 24.49 24.49 24.491 24.504 24.511 24.516 24.549 24.583 24.59 24.589 24.601 24.61 24.633 24.617 24.517 24.44 24.294 24.125 24.508 25.056 24.904 24.883 24.877 24.854 24.885 24.893 24.917 24.852 24.879 24.89 24.895 24.89 24.842 24.735 24.726 24.699 24.729 24.68 24.623 24.141 23.69 24.23 24.393 24.384 24.378 24.369 24.402 24.367 24.405 24.396 24.45 24.428 24.45 24.45 24.472 24.474 24.525 24.55 24.533 24.569 24.571 24.638 24.633 24.611 24.663 24.647 24.69 24.699 24.706 24.686 24.74 24.68 24.735 24.717 24.741 24.708 24.731 24.734 24.724 24.695 24.727 24.735 24.726 24.711 24.722 24.735 24.722 24.699 24.715 24.698 24.705 24.69 24.703 24.684 24.675 24.71 24.677 24.685 24.681 24.673 24.669 24.712 24.737 24.777 24.761 24.74 24.73 24.727 24.734 24.722 24.756 24.772 24.769 24.76 24.758 24.743 24.717 24.741 24.707 24.682 24.688 24.697 24.7 24.678 24.691 24.676 24.702 24.667 24.73 24.661 24.696 24.647 24.663 24.672 24.665 24.681 24.661 24.662 24.622 24.67 24.639 24.623 24.628 24.604 24.588 24.556 24.565 24.517 24.496 24.433 24.413 24.411 24.362 24.591 24.654 23.933 24.135 24.474 24.586 24.63 24.678 24.621 24.634 24.616 24.655 24.668 24.672 24.68 24.713 24.725 24.745 24.72 24.733 24.736 24.703 24.688 24.723 24.719 24.722 24.726 24.72 24.734 24.725 24.726 24.693 24.735 24.727 24.705 24.748 24.75 24.746 24.743 24.785 24.86 24.839 24.911 24.873 24.953 24.985 25 25.014 25.036 25.073 25.087 25.138 25.133 25.152 25.17 25.15 25.166 25.179 25.18 25.202 25.179 25.178 25.168 25.208 25.194 25.226 25.169 25.224 25.239 25.268 25.258 25.284 25.258 25.267 25.233 25.258 25.267 25.288 25.308 25.33 25.354 25.383 25.371 25.385 25.367 25.364 25.386 25.411 25.396
29.99 28.932 26.457 26.72 27.69 27.989 27.509 26.384 26.249 26.388 25.842 25.79 25.772 25.711 25.645 25.645 25.709 25.709 25.879 25.722 25.693 25.272 24.922 24.799 24.832 24.832 24.828 24.802 24.786 24.765 24.75 24.755 24.759 24.751 24.742 24.712 24.698 24.669 24.649 24.629 24.59 24.551 24.514 24.499 24.516 24.49 24.489 24.489 24.498 24.502 24.49 24.49 24.495 24.494 24.485 24.471 24.453 24.456 24.457 24.446 24.406 24.417 24.422 24.435 24.429 24.41 24.401 24.408 24.416 24.389 24.361 24.377 24.349 24.327 24.309 24.288 24.286 24.274 24.278 24.278 24.271 24.282 24.295 24.282 24.288 24.289 24.282 24.299 24.281 24.293 24.284 24.283 24.273 24.281 24.296 24.3 24.3 24.286 24.347 24.393 24.418 24.435 24.398 24.357 24.332 24.296 24.028 23.918 24.401 24.613 24.594 24.586 24.586 24.563 24.534 24.433 24.372 24.378 24.283 24.232 24.216 23.982 23.824 23.865 23.787 23.823 24.211 24.207 24.422 24.372 24.541 24.534 24.568 24.531 24.559 24.562 24.549 24.533 24.534 24.572 24.593 24.613 24.643 24.657 24.678 24.68 24.691 24.676 24.631 24.618 24.621 24.593 24.58 24.552 24.53 24.513 24.49 24.486 24.47 24.444 24.429 24.421 24.406 24.408 24.4 24.402 24.39 24.384 24.376 24.361 24.36 24.366 24.369 24.382 24.419 24.429 24.466 24.507 24.528 24.543 24.56 24.55 24.542 24.556 24.525 24.506 24.509 24.481 24.486 24.476 24.469 24.498 24.501 24.509 24.529 24.556 24.542 24.556 24.578 24.568 24.557 24.566 24.598 24.613 24.625 24.541 24.46 24.413 23.997 23.812 24.719 25.02 24.89 24.809 25.051 24.916 25.886 24.978 24.943 24.894 24.873 24.835 24.868 24.846 24.809 24.731 24.65 24.745 24.708 24.644 24.953 25.272 24.529 24.361 24.382 24.384 24.386 24.391 24.357 24.399 24.405 24.469 24.456 24.488 24.462 24.495 24.48 24.523 24.534 24.566 24.585 24.609 24.63 24.653 24.657 24.665 24.655 24.665 24.662 24.727 24.689 24.749 24.699 24.727 24.723 24.737 24.719 24.734 24.72 24.72 24.73 24.735 24.728 24.713 24.688 24.713 24.725 24.748 24.7 24.749 24.704 24.732 24.698 24.721 24.726 24.712 24.725 24.684 24.711 24.684 24.728 24.713 24.81 24.796 24.851 24.832 24.787 24.775 24.732 24.731 24.712 24.718 24.696 24.728 24.715 24.725 24.72 24.694 24.7 24.682 24.683 24.667 24.65 24.72 24.715 24.751 24.691 24.749 24.694 24.743 24.699 24.708 24.698 24.684 24.676 24.673 24.677 24.64 24.659 24.618 24.647 24.639 24.642 24.623 24.613 24.612 24.57 24.568 24.538 24.499 24.455 24.433 24.433 24.414 24.469 24.759 24.251 23.931 24.384 24.606 24.677 24.683 24.655 24.631 24.622 24.637 24.689 24.663 24.691 24.722 24.713 24.73 24.718 24.753 24.743 24.731 24.714 24.735 24.732 24.708 24.693 24.723 24.734 24.722 24.721 24.684 24.752 24.741 24.725 24.781 24.74 24.771 24.794 24.829 24.838 24.859 24.898 24.898 24.941 25.002 24.976 24.974 25.024 25.065 25.075 25.095 25.121 25.122 25.173 25.168 25.163 25.208 25.173 25.21 25.182 25.199 25.193 25.179 25.182 25.182 25.188 25.215 25.243 25.298 25.278 25.272 25.276 25.282 25.225 25.285 25.259 25.276 25.284 25.293 25.305 25.369 25.338 25.403 25.345 25.391 25.347 25.422 25.418
27.264 27.073 26.326 26.397 28.238 28.847 28.593 26.766 26.04 26.081 26.365 25.92 25.789 25.764 25.692 25.66 25.675 25.72 25.753 25.806 25.602 25.3 24.885 24.797 24.869 24.876 24.834 24.814 24.804 24.785 24.776 24.776 24.772 24.766 24.751 24.72 24.724 24.691 24.69 24.643 24.604 24.606 24.584 24.57 24.559 24.524 24.518 24.531 24.527 24.529 24.524 24.528 24.528 24.547 24.523 24.519 24.499 24.488 24.475 24.442 24.429 24.456 24.439 24.413 24.424 24.437 24.415 24.379 24.4 24.395 24.374 24.382 24.367 24.333 24.318 24.303 24.282 24.28 24.284 24.289 24.28 24.289 24.283 24.3 24.307 24.31 24.315 24.313 24.296 24.31 24.325 24.307 24.299 24.302 24.311 24.306 24.295 24.311 24.356 24.402 24.437 24.447 24.434 24.393 24.369 24.351 24.194 23.754 24.356 24.56 24.575 24.621 24.563 24.389 24.265 24.173 23.993 23.856 23.896 23.662 24.026 24.14 24.303 24.288 24.493 24.497 24.595 24.581 24.583 24.611 24.621 24.603 24.597 24.581 24.571 24.549 24.531 24.533 24.55 24.566 24.596 24.606 24.655 24.668 24.717 24.72 24.702 24.68 24.64 24.622 24.6 24.562 24.537 24.524 24.516 24.522 24.519 24.509 24.484 24.47 24.445 24.446 24.436 24.435 24.422 24.419 24.379 24.372 24.376 24.364 24.361 24.376 24.388 24.424 24.454 24.475 24.497 24.526 24.548 24.573 24.578 24.573 24.569 24.573 24.572 24.559 24.559 24.509 24.527 24.512 24.535 24.54 24.516 24.52 24.542 24.566 24.564 24.57 24.579 24.566 24.532 24.54 24.565 24.585 24.617 24.559 24.48 24.45 24.069 24.904 25.105 24.798 24.848 24.867 25.546 27.356 27.778 25.21 24.872 24.78 24.893 24.871 24.865 24.873 24.781 24.771 24.68 24.713 24.748 24.693 24.955 26.699 24.651 24.341 24.398 24.373 24.37 24.36 24.383 24.368 24.44 24.453 24.483 24.507 24.48 24.551 24.507 24.554 24.561 24.613 24.594 24.632 24.644 24.63 24.677 24.676 24.663 24.661 24.68 24.68 24.717 24.713 24.73 24.71 24.732 24.728 24.721 24.714 24.744 24.726 24.702 24.723 24.71 24.746 24.719 24.73 24.724 24.775 24.713 24.749 24.746 24.743 24.73 24.733 24.719 24.693 24.741 24.678 24.728 24.705 24.789 24.765 24.847 24.812 24.852 24.85 24.827 24.766 24.711 24.716 24.646 24.725 24.67 24.71 24.672 24.731 24.701 24.705 24.697 24.721 24.722 24.715 24.709 24.726 24.719 24.763 24.731 24.745 24.732 24.74 24.715 24.736 24.706 24.694 24.692 24.691 24.689 24.655 24.67 24.65 24.654 24.64 24.654 24.654 24.636 24.64 24.609 24.581 24.563 24.527 24.506 24.455 24.429 24.418 24.362 24.716 25.316 24.004 24.398 24.565 24.68 24.681 24.679 24.621 24.649 24.613 24.675 24.665 24.698 24.7 24.686 24.698 24.716 24.756 24.754 24.733 24.72 24.729 24.738 24.721 24.691 24.687 24.727 24.716 24.71 24.706 24.75 24.782 24.75 24.763 24.774 24.787 24.819 24.833 24.832 24.9 24.887 24.937 24.898 25.01 24.975 25 25.014 25.033 25.078 25.084 25.14 25.132 25.171 25.175 25.163 25.207 25.168 25.231 25.22 25.207 25.208 25.187 25.191 25.186 25.233 25.223 25.215 25.249 25.252 25.286 25.294 25.269 25.251 25.29 25.27 25.285 25.275 25.276 25.287 25.366 25.335 25.361 25.338 25.395 25.368 25.41 25.414
26.501 26.416 26.335 26.32 28.053 28.831 28.552 26.81 25.999 26.194 26.09 25.859 25.805 25.761 25.72 25.682 25.734 25.946 26.067 26.427 26.201 25.219 24.831 24.812 24.899 24.906 24.875 24.838 24.825 24.811 24.793 24.794 24.792 24.775 24.756 24.746 24.757 24.72 24.689 24.659 24.642 24.654 24.63 24.603 24.591 24.575 24.578 24.573 24.562 24.556 24.566 24.577 24.58 24.592 24.556 24.534 24.511 24.495 24.478 24.434 24.414 24.454 24.459 24.428 24.416 24.427 24.414 24.406 24.423 24.412 24.394 24.402 24.406 24.352 24.337 24.332 24.322 24.316 24.312 24.31 24.303 24.323 24.312 24.319 24.322 24.324 24.338 24.337 24.332 24.331 24.342 24.312 24.304 24.303 24.32 24.318 24.304 24.329 24.367 24.421 24.461 24.472 24.477 24.426 24.388 24.367 24.35 23.887 24.111 24.197 23.926 24.145 23.898 23.695 23.894 23.776 24.041 24.099 24.403 24.363 24.507 24.544 24.565 24.564 24.569 24.579 24.59 24.599 24.588 24.6 24.618 24.597 24.57 24.569 24.585 24.581 24.552 24.538 24.565 24.582 24.613 24.631 24.663 24.666 24.69 24.685 24.662 24.641 24.624 24.611 24.591 24.552 24.526 24.538 24.526 24.533 24.531 24.522 24.505 24.486 24.463 24.454 24.451 24.435 24.416 24.401 24.398 24.391 24.403 24.404 24.414 24.42 24.44 24.48 24.51 24.535 24.55 24.551 24.587 24.596 24.603 24.601 24.571 24.555 24.583 24.583 24.582 24.517 24.55 24.563 24.554 24.555 24.555 24.553 24.573 24.592 24.597 24.583 24.585 24.571 24.537 24.521 24.538 24.574 24.595 24.583 24.529 24.477 24.238 24.531 24.98 24.824 24.785 24.837 24.858 25.031 24.898 24.923 24.857 24.759 24.839 24.874 24.861 24.812 24.772 24.753 24.748 24.714 24.722 24.706 24.611 25.786 26.837 25.559 24.387 24.373 24.379 24.366 24.4 24.387 24.484 24.503 24.543 24.523 24.529 24.576 24.559 24.567 24.592 24.631 24.64 24.677 24.661 24.644 24.665 24.655 24.659 24.658 24.691 24.686 24.72 24.681 24.744 24.676 24.742 24.708 24.749 24.702 24.733 24.727 24.725 24.721 24.736 24.75 24.718 24.761 24.744 24.771 24.75 24.757 24.761 24.741 24.712 24.71 24.713 24.727 24.735 24.704 24.739 24.728 24.734 24.751 24.788 24.804 24.82 24.799 24.779 24.76 24.712 24.691 24.649 24.673 24.651 24.693 24.664 24.71 24.689 24.726 24.712 24.742 24.738 24.75 24.765 24.734 24.747 24.728 24.74 24.753 24.758 24.739 24.748 24.742 24.75 24.73 24.719 24.696 24.678 24.684 24.654 24.666 24.62 24.647 24.645 24.666 24.651 24.641 24.634 24.583 24.578 24.551 24.501 24.497 24.437 24.431 24.391 24.732 24.987 24.014 24.14 24.493 24.672 24.677 24.669 24.594 24.644 24.6 24.652 24.648 24.667 24.67 24.714 24.677 24.74 24.737 24.725 24.725 24.701 24.705 24.734 24.746 24.726 24.734 24.712 24.744 24.734 24.713 24.744 24.773 24.743 24.736 24.763 24.798 24.805 24.834 24.828 24.889 24.873 24.928 24.878 24.953 24.973 25.015 25.026 25.043 25.084 25.101 25.156 25.153 25.152 25.165 25.171 25.196 25.198 25.227 25.232 25.214 25.217 25.151 25.202 25.191 25.24 25.197 25.242 25.252 25.254 25.258 25.283 25.293 25.251 25.273 25.283 25.296 25.264 25.295 25.278 25.318 25.326 25.321 25.314 25.345 25.355 25.391 25.406
26.505 26.415 26.333 26.309 26.914 28.158 27.797 26.637 26.017 25.915 25.804 25.805 25.817 25.78 25.73 25.68 25.851 26.253 25.831 26.187 26.609 25.243 24.852 24.88 24.946 24.94 24.908 24.858 24.874 24.84 24.819 24.816 24.808 24.782 24.773 24.758 24.759 24.731 24.703 24.686 24.68 24.67 24.647 24.62 24.613 24.613 24.609 24.617 24.597 24.609 24.603 24.6 24.626 24.613 24.578 24.561 24.537 24.511 24.484 24.492 24.457 24.435 24.443 24.45 24.447 24.438 24.43 24.422 24.419 24.438 24.391 24.42 24.414 24.379 24.359 24.362 24.347 24.336 24.336 24.339 24.326 24.323 24.315 24.334 24.331 24.337 24.348 24.35 24.357 24.354 24.344 24.327 24.315 24.336 24.335 24.324 24.341 24.372 24.387 24.431 24.48 24.487 24.494 24.436 24.394 24.352 24.398 24.095 23.813 23.907 23.961 23.973 24.282 24.343 24.475 24.472 24.549 24.57 24.555 24.565 24.567 24.561 24.549 24.518 24.524 24.535 24.586 24.577 24.587 24.587 24.617 24.63 24.57 24.589 24.59 24.599 24.596 24.583 24.584 24.594 24.589 24.598 24.617 24.604 24.639 24.641 24.642 24.642 24.622 24.604 24.593 24.573 24.565 24.561 24.552 24.561 24.53 24.519 24.519 24.499 24.475 24.459 24.448 24.448 24.437 24.446 24.432 24.417 24.426 24.431 24.447 24.458 24.482 24.52 24.54 24.561 24.581 24.592 24.603 24.615 24.62 24.618 24.601 24.605 24.6 24.602 24.584 24.569 24.57 24.586 24.582 24.557 24.568 24.57 24.596 24.608 24.599 24.563 24.57 24.568 24.549 24.531 24.556 24.582 24.616 24.637 24.571 24.529 24.383 24.215 25.913 24.965 24.818 24.829 24.812 24.897 24.854 24.869 24.844 24.749 24.762 24.771 24.828 24.743 24.8 24.719 24.69 24.632 24.707 25.183 27.337 26.204 23.6 24.414 24.329 24.366 24.368 24.378 24.445 24.395 24.498 24.481 24.572 24.55 24.579 24.559 24.613 24.603 24.613 24.636 24.667 24.666 24.654 24.659 24.67 24.679 24.676 24.653 24.703 24.691 24.742 24.716 24.756 24.679 24.739 24.736 24.756 24.757 24.746 24.727 24.717 24.715 24.724 24.749 24.737 24.736 24.751 24.746 24.768 24.749 24.783 24.765 24.759 24.758 24.755 24.726 24.715 24.691 24.673 24.704 24.692 24.711 24.711 24.726 24.72 24.755 24.726 24.696 24.683 24.66 24.666 24.66 24.668 24.68 24.7 24.718 24.719 24.732 24.739 24.746 24.738 24.781 24.772 24.735 24.762 24.745 24.78 24.738 24.774 24.73 24.754 24.726 24.725 24.729 24.732 24.725 24.688 24.703 24.639 24.685 24.624 24.662 24.645 24.664 24.625 24.617 24.654 24.604 24.592 24.571 24.525 24.484 24.421 24.417 24.387 24.538 24.821 24.161 24.049 24.486 24.601 24.673 24.661 24.596 24.63 24.598 24.602 24.613 24.655 24.629 24.683 24.66 24.714 24.725 24.705 24.736 24.736 24.711 24.726 24.74 24.737 24.724 24.729 24.734 24.729 24.755 24.726 24.758 24.735 24.702 24.8 24.771 24.828 24.832 24.852 24.871 24.876 24.93 24.892 24.933 25.003 24.997 25.021 25.015 25.049 25.07 25.134 25.159 25.151 25.154 25.181 25.207 25.176 25.202 25.242 25.228 25.226 25.175 25.197 25.2 25.239 25.233 25.207 25.25 25.278 25.271 25.332 25.285 25.31 25.29 25.299 25.295 25.299 25.282 25.302 25.289 25.356 25.323 25.348 25.33 25.386 25.373 25.441
26.51 26.44 26.357 26.276 26.263 26.294 26.497 26.32 26.039 25.874 25.821 25.799 25.822 25.761 25.717 25.675 25.636 25.618 25.568 26.066 26.66 25.485 24.934 24.967 24.983 24.956 24.924 24.903 24.902 24.87 24.867 24.835 24.807 24.791 24.784 24.776 24.766 24.744 24.712 24.716 24.712 24.688 24.67 24.646 24.648 24.668 24.649 24.673 24.641 24.644 24.639 24.63 24.627 24.613 24.589 24.573 24.558 24.522 24.486 24.53 24.504 24.444 24.458 24.463 24.461 24.442 24.446 24.445 24.442 24.443 24.41 24.41 24.405 24.378 24.375 24.367 24.353 24.358 24.37 24.341 24.321 24.333 24.335 24.338 24.343 24.35 24.357 24.357 24.35 24.337 24.33 24.342 24.341 24.363 24.374 24.354 24.349 24.37 24.389 24.422 24.459 24.472 24.461 24.44 24.405 24.442 24.49 24.413 24.413 24.468 24.514 24.545 24.548 24.541 24.53 24.536 24.55 24.535 24.519 24.513 24.513 24.523 24.531 24.511 24.533 24.574 24.606 24.623 24.63 24.656 24.657 24.662 24.653 24.647 24.624 24.607 24.606 24.593 24.58 24.557 24.559 24.58 24.597 24.621 24.661 24.669 24.668 24.675 24.677 24.643 24.637 24.598 24.565 24.559 24.543 24.537 24.515 24.514 24.509 24.503 24.488 24.481 24.482 24.478 24.48 24.482 24.471 24.454 24.472 24.451 24.477 24.499 24.509 24.551 24.549 24.566 24.587 24.6 24.592 24.608 24.632 24.631 24.618 24.607 24.594 24.596 24.602 24.6 24.584 24.597 24.614 24.599 24.591 24.603 24.606 24.612 24.591 24.57 24.579 24.587 24.577 24.551 24.576 24.599 24.639 24.663 24.597 24.55 24.511 23.894 24.625 24.808 24.8 24.805 24.858 24.912 24.942 24.871 24.85 24.808 24.813 24.789 24.731 24.696 24.708 24.635 25.409 24.614 24.66 24.721 24.766 24.444 23.44 23.943 24.317 24.389 24.383 24.399 24.442 24.445 24.518 24.525 24.572 24.575 24.595 24.576 24.619 24.598 24.604 24.617 24.643 24.662 24.658 24.637 24.63 24.656 24.681 24.677 24.728 24.705 24.724 24.744 24.742 24.712 24.747 24.735 24.75 24.757 24.751 24.74 24.718 24.7 24.73 24.736 24.75 24.723 24.766 24.772 24.798 24.765 24.809 24.772 24.767 24.759 24.711 24.699 24.677 24.684 24.636 24.698 24.671 24.688 24.647 24.71 24.684 24.707 24.713 24.698 24.692 24.653 24.701 24.647 24.712 24.69 24.73 24.713 24.73 24.729 24.742 24.75 24.769 24.781 24.768 24.775 24.758 24.755 24.76 24.728 24.767 24.742 24.761 24.755 24.76 24.726 24.715 24.742 24.69 24.724 24.691 24.702 24.654 24.67 24.648 24.65 24.654 24.627 24.653 24.614 24.611 24.58 24.543 24.518 24.459 24.434 24.393 24.447 24.615 24.393 23.924 24.461 24.565 24.706 24.7 24.623 24.606 24.639 24.592 24.632 24.664 24.646 24.697 24.662 24.682 24.71 24.727 24.738 24.712 24.697 24.698 24.734 24.713 24.704 24.703 24.734 24.75 24.685 24.713 24.723 24.765 24.731 24.786 24.773 24.827 24.855 24.882 24.881 24.872 24.873 24.884 24.845 24.929 24.953 25.003 24.996 24.991 25.045 25.083 25.14 25.124 25.136 25.163 25.157 25.166 25.169 25.24 25.227 25.215 25.218 25.202 25.211 25.227 25.242 25.231 25.278 25.288 25.301 25.307 25.343 25.34 25.304 25.319 25.314 25.31 25.295 25.291 25.323 25.366 25.347 25.391 25.346 25.391 25.381 25.436
26.517 26.45 26.37 26.29 26.208 26.159 26.56 26.346 26.06 25.896 25.846 25.823 25.822 25.776 25.75 25.712 25.664 25.95 26.169 25.586 25.487 25.095 24.956 25.025 25.032 24.995 24.947 24.932 24.934 24.905 24.881 24.866 24.838 24.83 24.806 24.803 24.802 24.77 24.756 24.753 24.748 24.717 24.702 24.673 24.684 24.699 24.684 24.667 24.65 24.661 24.661 24.633 24.629 24.616 24.598 24.578 24.555 24.527 24.504 24.518 24.483 24.474 24.496 24.483 24.482 24.453 24.444 24.451 24.456 24.454 24.446 24.436 24.407 24.393 24.404 24.373 24.37 24.37 24.366 24.367 24.338 24.345 24.346 24.341 24.356 24.348 24.342 24.354 24.345 24.343 24.34 24.341 24.349 24.358 24.375 24.363 24.327 24.35 24.384 24.403 24.452 24.454 24.476 24.462 24.458 24.452 24.478 24.466 24.475 24.479 24.497 24.525 24.516 24.506 24.504 24.499 24.506 24.505 24.504 24.524 24.517 24.541 24.553 24.566 24.594 24.633 24.644 24.653 24.671 24.674 24.675 24.682 24.701 24.679 24.656 24.614 24.614 24.589 24.563 24.554 24.571 24.61 24.606 24.64 24.666 24.686 24.686 24.708 24.694 24.667 24.656 24.619 24.592 24.579 24.554 24.529 24.52 24.527 24.546 24.522 24.526 24.526 24.523 24.508 24.506 24.515 24.509 24.502 24.504 24.518 24.506 24.523 24.537 24.537 24.559 24.581 24.577 24.591 24.614 24.629 24.652 24.648 24.627 24.631 24.62 24.61 24.609 24.621 24.608 24.608 24.632 24.626 24.621 24.627 24.621 24.618 24.612 24.594 24.588 24.602 24.604 24.598 24.613 24.622 24.667 24.68 24.634 24.576 24.522 24.147 23.406 25.217 24.752 24.77 24.747 24.887 24.995 24.856 24.871 24.778 24.771 24.838 24.763 24.743 24.697 24.722 24.9 24.806 24.689 24.659 24.572 24.459 23.786 24.284 24.347 24.414 24.403 24.44 24.469 24.505 24.509 24.555 24.592 24.569 24.597 24.591 24.603 24.606 24.613 24.603 24.627 24.64 24.659 24.658 24.662 24.681 24.679 24.71 24.728 24.726 24.723 24.78 24.732 24.765 24.742 24.763 24.726 24.748 24.749 24.737 24.742 24.751 24.775 24.775 24.775 24.727 24.78 24.749 24.8 24.728 24.751 24.765 24.773 24.737 24.7 24.671 24.65 24.679 24.643 24.694 24.678 24.675 24.651 24.69 24.695 24.712 24.704 24.704 24.676 24.691 24.716 24.659 24.712 24.686 24.739 24.716 24.721 24.742 24.757 24.766 24.764 24.764 24.774 24.77 24.776 24.773 24.762 24.747 24.747 24.739 24.764 24.754 24.742 24.742 24.745 24.748 24.703 24.716 24.691 24.688 24.671 24.677 24.677 24.667 24.664 24.657 24.627 24.644 24.608 24.612 24.566 24.517 24.486 24.431 24.433 24.437 24.659 24.763 23.639 24.388 24.561 24.661 24.696 24.628 24.586 24.648 24.606 24.639 24.649 24.687 24.684 24.671 24.666 24.676 24.704 24.722 24.706 24.71 24.688 24.726 24.699 24.722 24.722 24.727 24.726 24.71 24.688 24.713 24.758 24.744 24.816 24.798 24.847 24.87 24.885 24.836 24.873 24.852 24.886 24.829 24.896 24.919 24.98 24.982 24.967 25.057 25.048 25.095 25.112 25.109 25.145 25.122 25.188 25.157 25.216 25.2 25.188 25.231 25.198 25.221 25.219 25.238 25.21 25.223 25.259 25.286 25.31 25.34 25.338 25.325 25.338 25.308 25.321 25.295 25.302 25.33 25.371 25.378 25.39 25.381 25.42 25.394 25.444
26.538 26.457 26.37 26.275 26.206 26.144 26.134 26.147 25.965 25.941 25.911 25.874 25.84 25.81 25.776 25.754 25.699 25.808 25.823 25.534 25.436 25.101 25.021 25.061 25.052 25.035 24.998 24.963 24.964 24.916 24.91 24.907 24.888 24.848 24.848 24.835 24.829 24.791 24.788 24.775 24.752 24.732 24.719 24.704 24.711 24.721 24.713 24.68 24.666 24.678 24.664 24.639 24.635 24.622 24.601 24.574 24.58 24.541 24.505 24.514 24.511 24.519 24.507 24.508 24.513 24.521 24.495 24.474 24.477 24.483 24.466 24.46 24.432 24.419 24.424 24.41 24.395 24.379 24.351 24.361 24.353 24.339 24.359 24.365 24.366 24.367 24.373 24.381 24.369 24.365 24.34 24.349 24.343 24.341 24.37 24.37 24.323 24.329 24.383 24.393 24.427 24.447 24.481 24.495 24.488 24.499 24.495 24.488 24.478 24.481 24.489 24.525 24.503 24.507 24.512 24.508 24.525 24.539 24.552 24.567 24.587 24.592 24.585 24.598 24.614 24.649 24.657 24.703 24.713 24.709 24.73 24.725 24.715 24.69 24.664 24.617 24.593 24.575 24.579 24.598 24.6 24.598 24.605 24.638 24.664 24.681 24.692 24.705 24.696 24.669 24.651 24.641 24.621 24.596 24.564 24.549 24.536 24.547 24.555 24.543 24.557 24.552 24.544 24.522 24.511 24.506 24.507 24.509 24.518 24.532 24.538 24.531 24.566 24.573 24.598 24.611 24.629 24.639 24.649 24.646 24.671 24.68 24.674 24.665 24.645 24.648 24.658 24.663 24.645 24.623 24.636 24.64 24.645 24.66 24.656 24.643 24.637 24.621 24.627 24.638 24.641 24.581 24.641 24.601 24.683 24.647 24.643 24.588 24.526 24.406 23.556 26.989 24.888 24.781 24.692 24.782 24.86 24.823 24.754 24.708 24.656 24.845 24.76 24.841 24.779 24.666 24.668 24.689 24.69 24.689 24.586 24.501 24.435 24.548 24.327 24.445 24.435 24.467 24.485 24.534 24.488 24.596 24.563 24.587 24.605 24.627 24.628 24.636 24.637 24.637 24.661 24.66 24.683 24.664 24.686 24.703 24.708 24.744 24.708 24.744 24.691 24.758 24.732 24.772 24.721 24.782 24.713 24.768 24.793 24.787 24.786 24.774 24.748 24.743 24.746 24.711 24.769 24.73 24.752 24.724 24.709 24.71 24.72 24.722 24.698 24.683 24.661 24.687 24.665 24.666 24.67 24.679 24.671 24.673 24.666 24.676 24.673 24.696 24.731 24.714 24.73 24.73 24.733 24.735 24.744 24.742 24.763 24.749 24.797 24.794 24.769 24.766 24.79 24.779 24.765 24.756 24.745 24.749 24.736 24.74 24.729 24.757 24.76 24.768 24.753 24.745 24.736 24.733 24.713 24.676 24.68 24.674 24.662 24.674 24.68 24.677 24.635 24.664 24.59 24.6 24.592 24.525 24.505 24.424 24.465 24.375 24.567 24.735 23.911 24.12 24.526 24.644 24.685 24.63 24.599 24.639 24.606 24.633 24.665 24.699 24.684 24.705 24.671 24.684 24.7 24.667 24.701 24.706 24.716 24.739 24.723 24.729 24.747 24.754 24.745 24.719 24.699 24.715 24.74 24.763 24.779 24.816 24.828 24.831 24.876 24.834 24.87 24.88 24.881 24.768 24.901 24.906 24.956 24.984 24.95 25.044 25.025 25.12 25.093 25.098 25.143 25.134 25.182 25.164 25.202 25.25 25.19 25.246 25.213 25.248 25.206 25.273 25.211 25.221 25.273 25.321 25.317 25.338 25.339 25.339 25.316 25.313 25.304 25.326 25.336 25.355 25.376 25.385 25.399 25.397 25.416 25.445 25.455
26.527 26.45 26.35 26.343 26.226 26.166 26.122 26.1 26.105 25.986 25.909 25.844 25.831 25.806 25.789 25.789 25.739 25.678 25.652 25.614 25.441 25.081 25.047 25.102 25.107 25.085 25.022 25.012 24.983 24.948 24.939 24.943 24.928 24.885 24.878 24.876 24.867 24.84 24.814 24.788 24.773 24.762 24.756 24.733 24.732 24.73 24.712 24.699 24.664 24.671 24.65 24.651 24.652 24.628 24.62 24.613 24.602 24.569 24.569 24.564 24.534 24.542 24.534 24.543 24.525 24.503 24.51 24.508 24.517 24.506 24.488 24.492 24.472 24.456 24.449 24.427 24.407 24.381 24.363 24.369 24.37 24.362 24.374 24.398 24.385 24.385 24.376 24.406 24.381 24.371 24.335 24.339 24.349 24.327 24.347 24.35 24.329 24.352 24.386 24.409 24.451 24.487 24.495 24.505 24.519 24.541 24.537 24.527 24.51 24.515 24.529 24.542 24.549 24.552 24.548 24.546 24.556 24.565 24.579 24.584 24.598 24.596 24.611 24.624 24.633 24.674 24.689 24.733 24.758 24.771 24.775 24.754 24.732 24.696 24.672 24.621 24.572 24.566 24.574 24.583 24.59 24.593 24.61 24.633 24.673 24.694 24.718 24.7 24.69 24.672 24.641 24.659 24.676 24.631 24.602 24.59 24.576 24.566 24.571 24.58 24.589 24.571 24.557 24.539 24.516 24.513 24.514 24.539 24.554 24.555 24.582 24.6 24.605 24.616 24.62 24.622 24.636 24.638 24.653 24.668 24.671 24.696 24.703 24.682 24.671 24.696 24.704 24.704 24.685 24.661 24.66 24.676 24.677 24.695 24.707 24.692 24.65 24.618 24.649 24.595 24.66 24.601 24.648 24.637 24.685 24.694 24.674 24.612 24.55 24.469 24.057 24.345 24.95 24.753 24.788 24.836 24.842 24.857 24.835 24.778 24.747 24.875 24.775 24.875 24.869 24.707 24.672 24.723 24.689 24.669 24.62 24.521 24.508 24.218 24.265 24.47 24.49 24.505 24.524 24.551 24.538 24.6 24.57 24.615 24.579 24.629 24.608 24.641 24.634 24.644 24.651 24.683 24.699 24.705 24.673 24.715 24.717 24.771 24.742 24.76 24.703 24.781 24.759 24.784 24.779 24.811 24.769 24.821 24.817 24.781 24.768 24.765 24.723 24.724 24.736 24.705 24.697 24.696 24.707 24.724 24.711 24.738 24.721 24.707 24.704 24.675 24.679 24.656 24.67 24.65 24.67 24.648 24.688 24.67 24.696 24.694 24.683 24.682 24.68 24.737 24.721 24.74 24.721 24.749 24.746 24.745 24.767 24.762 24.803 24.806 24.789 24.774 24.744 24.749 24.759 24.757 24.709 24.747 24.693 24.763 24.718 24.759 24.754 24.764 24.75 24.732 24.752 24.702 24.729 24.695 24.717 24.67 24.687 24.699 24.691 24.678 24.654 24.675 24.645 24.64 24.596 24.555 24.533 24.458 24.458 24.431 24.533 24.725 24.258 24.028 24.41 24.571 24.706 24.631 24.594 24.63 24.65 24.651 24.67 24.709 24.706 24.716 24.681 24.709 24.702 24.743 24.716 24.728 24.728 24.734 24.727 24.722 24.709 24.76 24.728 24.758 24.731 24.688 24.741 24.778 24.78 24.833 24.808 24.826 24.836 24.873 24.857 24.86 24.867 24.791 24.868 24.913 24.934 24.972 24.96 25.014 25.031 25.076 25.113 25.114 25.125 25.108 25.154 25.173 25.164 25.23 25.198 25.209 25.245 25.241 25.227 25.26 25.259 25.208 25.284 25.312 25.315 25.332 25.34 25.335 25.299 25.343 25.326 25.314 25.348 25.316 25.339 25.399 25.384 25.423 25.398 25.441 25.405
26.555 26.478 26.561 27.382 26.66 26.225 26.568 26.948 27.2 26.558 26.002 25.839 25.841 25.83 25.81 25.807 25.819 25.838 25.728 25.676 25.364 25.116 25.125 25.153 25.156 25.109 25.065 25.044 25.023 25.003 24.99 24.989 24.981 24.949 24.918 24.922 24.911 24.873 24.844 24.815 24.794 24.779 24.765 24.734 24.728 24.713 24.711 24.709 24.684 24.677 24.669 24.671 24.673 24.666 24.638 24.634 24.62 24.595 24.587 24.591 24.576 24.558 24.557 24.559 24.547 24.523 24.539 24.552 24.553 24.51 24.501 24.473 24.477 24.479 24.458 24.435 24.403 24.396 24.375 24.376 24.382 24.368 24.386 24.409 24.402 24.406 24.399 24.404 24.383 24.364 24.36 24.342 24.343 24.328 24.344 24.365 24.363 24.37 24.409 24.448 24.473 24.506 24.516 24.527 24.549 24.567 24.575 24.561 24.544 24.547 24.554 24.562 24.576 24.569 24.578 24.577 24.584 24.586 24.586 24.601 24.604 24.612 24.606 24.62 24.655 24.694 24.705 24.729 24.749 24.767 24.781 24.758 24.715 24.686 24.648 24.611 24.559 24.547 24.57 24.571 24.585 24.582 24.592 24.618 24.668 24.68 24.691 24.681 24.69 24.683 24.667 24.689 24.687 24.666 24.637 24.633 24.607 24.588 24.588 24.592 24.591 24.568 24.559 24.568 24.558 24.558 24.566 24.573 24.588 24.596 24.621 24.622 24.625 24.639 24.629 24.64 24.651 24.644 24.648 24.656 24.685 24.706 24.719 24.715 24.703 24.707 24.724 24.717 24.724 24.727 24.713 24.724 24.721 24.718 24.717 24.705 24.68 24.643 24.655 24.611 24.672 24.625 24.647 24.627 24.677 24.661 24.67 24.597 24.537 24.489 24.402 24.86 25.121 25.09 24.947 24.852 24.834 24.83 24.875 24.792 24.769 24.853 24.77 24.844 24.836 24.766 24.685 24.706 24.676 24.729 24.707 24.616 24.358 23.851 24.157 24.447 24.53 24.534 24.54 24.543 24.536 24.59 24.584 24.626 24.629 24.659 24.63 24.686 24.659 24.665 24.677 24.691 24.716 24.727 24.738 24.77 24.782 24.804 24.821 24.827 24.782 24.8 24.78 24.801 24.786 24.809 24.79 24.8 24.795 24.787 24.763 24.74 24.701 24.686 24.674 24.69 24.66 24.709 24.7 24.737 24.693 24.739 24.702 24.723 24.708 24.69 24.695 24.665 24.685 24.638 24.682 24.649 24.689 24.656 24.708 24.684 24.692 24.705 24.708 24.733 24.693 24.753 24.699 24.76 24.738 24.772 24.759 24.778 24.773 24.775 24.783 24.778 24.733 24.734 24.724 24.745 24.711 24.767 24.702 24.749 24.742 24.771 24.743 24.779 24.761 24.749 24.777 24.705 24.746 24.727 24.731 24.706 24.715 24.695 24.715 24.722 24.693 24.702 24.699 24.648 24.618 24.598 24.543 24.498 24.468 24.437 24.516 24.817 24.683 23.949 24.414 24.574 24.69 24.645 24.622 24.597 24.658 24.613 24.658 24.714 24.751 24.736 24.707 24.694 24.703 24.681 24.728 24.684 24.727 24.716 24.742 24.718 24.735 24.731 24.738 24.747 24.706 24.716 24.737 24.823 24.754 24.839 24.802 24.82 24.805 24.847 24.839 24.865 24.87 24.885 24.869 24.936 24.958 24.993 25.028 25.019 25.08 25.093 25.147 25.133 25.128 25.145 25.13 25.203 25.156 25.196 25.215 25.209 25.241 25.246 25.236 25.237 25.249 25.223 25.259 25.272 25.3 25.292 25.311 25.319 25.275 25.327 25.328 25.302 25.343 25.345 25.333 25.398 25.366 25.409 25.385 25.43 25.357
26.581 26.534 27.846 28.434 27.016 26.264 27.841 28.684 28.444 27.495 26.231 25.878 25.848 25.846 25.826 25.822 25.944 26.013 25.788 25.638 25.437 25.141 25.166 25.208 25.2 25.15 25.111 25.094 25.062 25.029 25.019 25.047 25.027 25.003 24.963 24.941 24.913 24.878 24.862 24.825 24.794 24.783 24.781 24.745 24.719 24.713 24.712 24.704 24.685 24.7 24.698 24.687 24.672 24.671 24.647 24.652 24.645 24.642 24.623 24.62 24.617 24.605 24.586 24.579 24.583 24.57 24.561 24.561 24.575 24.533 24.509 24.499 24.474 24.472 24.459 24.435 24.429 24.428 24.384 24.377 24.368 24.365 24.395 24.416 24.412 24.42 24.432 24.429 24.402 24.382 24.381 24.369 24.362 24.37 24.361 24.365 24.383 24.384 24.438 24.472 24.474 24.499 24.527 24.553 24.556 24.584 24.595 24.574 24.549 24.57 24.58 24.587 24.61 24.599 24.604 24.601 24.602 24.605 24.618 24.611 24.603 24.607 24.618 24.633 24.646 24.672 24.71 24.72 24.731 24.734 24.728 24.713 24.704 24.689 24.648 24.622 24.584 24.576 24.575 24.586 24.605 24.604 24.607 24.64 24.637 24.637 24.672 24.686 24.684 24.702 24.685 24.679 24.672 24.656 24.67 24.651 24.618 24.611 24.602 24.608 24.587 24.583 24.587 24.577 24.596 24.588 24.598 24.63 24.653 24.652 24.67 24.666 24.643 24.642 24.638 24.654 24.651 24.643 24.652 24.685 24.717 24.73 24.72 24.727 24.747 24.756 24.764 24.748 24.77 24.765 24.764 24.764 24.752 24.727 24.693 24.694 24.666 24.649 24.628 24.602 24.614 24.63 24.619 24.613 24.624 24.662 24.654 24.609 24.554 24.484 24.522 25.657 24.682 24.732 24.805 24.784 24.862 24.947 24.894 24.799 24.737 24.785 24.777 24.792 24.823 24.768 24.755 24.689 24.631 24.668 24.734 24.634 24.447 24.009 24.171 24.442 24.545 24.544 24.574 24.569 24.61 24.604 24.646 24.646 24.632 24.66 24.642 24.684 24.687 24.7 24.709 24.74 24.742 24.78 24.79 24.796 24.844 24.87 24.883 24.861 24.828 24.776 24.781 24.778 24.781 24.768 24.782 24.767 24.749 24.723 24.702 24.725 24.698 24.704 24.67 24.69 24.664 24.721 24.684 24.745 24.727 24.744 24.728 24.768 24.73 24.719 24.708 24.681 24.699 24.643 24.676 24.659 24.686 24.678 24.71 24.677 24.724 24.726 24.71 24.738 24.686 24.755 24.721 24.762 24.743 24.791 24.77 24.766 24.75 24.776 24.757 24.759 24.762 24.72 24.744 24.734 24.726 24.754 24.746 24.759 24.723 24.726 24.74 24.768 24.771 24.764 24.761 24.723 24.739 24.748 24.757 24.72 24.726 24.753 24.732 24.714 24.731 24.742 24.711 24.667 24.618 24.596 24.542 24.52 24.456 24.479 24.466 24.772 25.237 23.633 24.246 24.52 24.651 24.672 24.612 24.593 24.642 24.613 24.685 24.675 24.724 24.715 24.699 24.685 24.691 24.708 24.735 24.684 24.728 24.692 24.723 24.72 24.706 24.717 24.75 24.741 24.741 24.758 24.722 24.773 24.777 24.836 24.804 24.823 24.788 24.855 24.842 24.899 24.869 24.94 24.898 24.957 24.979 25.002 25.07 25.039 25.125 25.097 25.16 25.172 25.151 25.182 25.165 25.22 25.199 25.211 25.226 25.227 25.27 25.249 25.268 25.221 25.252 25.244 25.254 25.264 25.294 25.282 25.294 25.307 25.285 25.306 25.302 25.321 25.336 25.37 25.331 25.368 25.341 25.392 25.408 25.432 25.389
26.627 26.559 27.286 28.794 27.888 26.28 27.099 28.85 28.655 27.605 26.184 25.921 25.855 25.839 25.834 25.84 25.845 25.834 25.748 25.615 25.305 25.188 25.204 25.258 25.255 25.193 25.155 25.157 25.098 25.067 25.051 25.063 25.059 25.045 25.005 24.965 24.947 24.902 24.879 24.845 24.833 24.809 24.802 24.788 24.741 24.736 24.724 24.718 24.711 24.718 24.715 24.719 24.701 24.695 24.673 24.68 24.697 24.7 24.684 24.666 24.658 24.638 24.61 24.609 24.606 24.618 24.595 24.585 24.577 24.551 24.512 24.521 24.521 24.506 24.454 24.425 24.404 24.419 24.403 24.385 24.383 24.373 24.401 24.437 24.439 24.448 24.452 24.465 24.438 24.415 24.427 24.394 24.393 24.38 24.372 24.408 24.412 24.413 24.428 24.464 24.487 24.516 24.533 24.57 24.572 24.577 24.588 24.569 24.549 24.576 24.596 24.608 24.636 24.64 24.648 24.635 24.623 24.611 24.604 24.59 24.578 24.588 24.628 24.636 24.63 24.643 24.679 24.691 24.707 24.72 24.742 24.725 24.743 24.727 24.676 24.643 24.616 24.604 24.609 24.615 24.613 24.61 24.618 24.632 24.638 24.634 24.659 24.68 24.687 24.694 24.686 24.67 24.67 24.666 24.662 24.657 24.644 24.64 24.619 24.625 24.624 24.616 24.624 24.63 24.623 24.63 24.638 24.661 24.677 24.664 24.665 24.655 24.643 24.63 24.645 24.672 24.664 24.653 24.662 24.685 24.718 24.711 24.716 24.76 24.788 24.772 24.822 24.781 24.826 24.79 24.804 24.809 24.753 24.76 24.707 24.7 24.649 24.646 24.621 24.635 24.597 24.639 24.581 24.595 24.585 24.649 24.641 24.626 24.591 24.567 24.559 24.286 24.182 24.619 24.769 24.81 24.873 24.827 24.871 24.824 24.708 24.746 24.763 24.715 24.786 24.814 24.837 24.768 24.676 24.699 24.756 24.7 24.524 24.087 23.846 24.746 24.596 24.559 24.594 24.58 24.601 24.582 24.657 24.631 24.689 24.675 24.695 24.709 24.732 24.747 24.761 24.774 24.757 24.774 24.84 24.861 24.863 24.828 24.861 24.846 24.816 24.722 24.767 24.749 24.778 24.733 24.763 24.722 24.739 24.709 24.684 24.7 24.698 24.688 24.679 24.705 24.69 24.736 24.702 24.749 24.752 24.747 24.744 24.753 24.748 24.711 24.694 24.685 24.686 24.67 24.671 24.668 24.685 24.686 24.731 24.712 24.705 24.698 24.7 24.715 24.703 24.703 24.723 24.738 24.756 24.768 24.753 24.757 24.778 24.751 24.76 24.733 24.767 24.74 24.757 24.742 24.767 24.728 24.74 24.73 24.749 24.738 24.754 24.748 24.732 24.757 24.752 24.762 24.734 24.757 24.737 24.787 24.743 24.771 24.773 24.757 24.777 24.737 24.737 24.687 24.63 24.624 24.576 24.565 24.462 24.505 24.476 24.876 25.974 24.572 24.553 24.49 24.621 24.692 24.646 24.617 24.605 24.604 24.661 24.723 24.757 24.702 24.727 24.672 24.694 24.703 24.683 24.701 24.668 24.688 24.728 24.701 24.709 24.701 24.763 24.746 24.756 24.725 24.728 24.798 24.798 24.822 24.846 24.825 24.826 24.846 24.858 24.918 24.918 24.94 24.93 24.957 25.004 25.039 25.071 25.045 25.101 25.124 25.192 25.196 25.185 25.206 25.207 25.233 25.23 25.211 25.3 25.3 25.323 25.261 25.303 25.269 25.28 25.254 25.26 25.274 25.317 25.286 25.322 25.308 25.304 25.287 25.287 25.293 25.341 25.352 25.346 25.355 25.378 25.369 25.409 25.394 25.426
26.663 26.574 26.729 28.54 28.476 26.582 26.776 28.725 28.632 26.938 26.3 26.2 25.942 25.85 25.842 25.838 25.848 25.832 25.751 25.642 25.291 25.266 25.297 25.304 25.307 25.238 25.191 25.188 25.124 25.1 25.089 25.096 25.111 25.068 25.047 25.009 24.983 24.953 24.925 24.906 24.873 24.868 24.834 24.805 24.77 24.757 24.751 24.746 24.745 24.745 24.726 24.737 24.738 24.737 24.721 24.708 24.714 24.717 24.7 24.69 24.678 24.669 24.661 24.644 24.649 24.631 24.591 24.584 24.587 24.578 24.546 24.537 24.543 24.518 24.478 24.459 24.439 24.418 24.411 24.399 24.406 24.388 24.433 24.481 24.467 24.479 24.485 24.49 24.495 24.447 24.464 24.43 24.429 24.409 24.413 24.429 24.45 24.456 24.48 24.498 24.519 24.533 24.549 24.562 24.575 24.584 24.595 24.589 24.575 24.595 24.619 24.644 24.669 24.657 24.658 24.629 24.615 24.598 24.609 24.596 24.585 24.589 24.599 24.624 24.653 24.635 24.666 24.709 24.729 24.736 24.741 24.745 24.75 24.75 24.723 24.684 24.641 24.618 24.61 24.623 24.612 24.611 24.648 24.649 24.671 24.681 24.686 24.693 24.689 24.687 24.681 24.678 24.683 24.669 24.652 24.649 24.657 24.648 24.631 24.624 24.641 24.653 24.64 24.636 24.643 24.652 24.67 24.685 24.685 24.665 24.655 24.653 24.642 24.647 24.669 24.685 24.683 24.699 24.689 24.713 24.761 24.8 24.78 24.768 24.81 24.773 24.847 24.804 24.833 24.83 24.837 24.797 24.773 24.741 24.721 24.722 24.674 24.66 24.604 24.64 24.563 24.599 24.547 24.57 24.554 24.609 24.607 24.64 24.589 24.568 24.538 23.887 24.373 25.057 24.788 24.767 24.851 24.785 24.824 24.73 24.692 24.656 24.841 24.69 24.805 24.86 24.86 24.823 24.683 24.747 24.7 24.76 24.714 24.56 26.589 25.155 24.593 24.609 24.598 24.605 24.614 24.611 24.657 24.638 24.692 24.666 24.69 24.723 24.74 24.754 24.76 24.779 24.768 24.768 24.812 24.838 24.84 24.814 24.858 24.825 24.77 24.684 24.722 24.701 24.753 24.715 24.739 24.708 24.727 24.698 24.696 24.7 24.702 24.716 24.71 24.709 24.703 24.696 24.741 24.749 24.777 24.772 24.76 24.752 24.719 24.686 24.666 24.668 24.68 24.676 24.658 24.687 24.655 24.694 24.666 24.688 24.673 24.709 24.695 24.685 24.717 24.7 24.727 24.711 24.775 24.737 24.754 24.765 24.77 24.74 24.732 24.721 24.765 24.725 24.744 24.721 24.76 24.699 24.755 24.7 24.729 24.77 24.772 24.748 24.78 24.796 24.764 24.805 24.738 24.795 24.762 24.788 24.759 24.785 24.764 24.761 24.787 24.741 24.751 24.733 24.69 24.643 24.587 24.583 24.518 24.531 24.526 24.834 25.529 25.422 24.973 24.53 24.606 24.683 24.628 24.621 24.607 24.619 24.637 24.661 24.701 24.689 24.649 24.673 24.657 24.688 24.699 24.703 24.66 24.688 24.681 24.703 24.698 24.717 24.747 24.715 24.743 24.708 24.773 24.754 24.832 24.815 24.87 24.832 24.817 24.823 24.873 24.912 24.932 24.943 24.953 24.994 25.057 25.061 25.08 25.105 25.091 25.163 25.176 25.211 25.205 25.216 25.223 25.24 25.294 25.283 25.335 25.36 25.331 25.34 25.339 25.305 25.311 25.309 25.264 25.278 25.28 25.304 25.327 25.329 25.3 25.267 25.306 25.325 25.361 25.371 25.344 25.337 25.409 25.376 25.41 25.406 25.43
